# .PCD v0.7 - Point Cloud Data file format
VERSION 0.7
FIELDS x y z
SIZE 4 4 4
TYPE F F F
COUNT 1 1 1
WIDTH 1437
HEIGHT 1
VIEWPOINT 0 0 0 1 0 0 0
POINTS 1437
DATA ascii
-0.71621871 2.909987 -1.0195706
-0.70447731 2.909987 -1.0195706
-0.69567138 2.909987 -1.0195706
-0.64577091 2.909987 -1.0195706
-0.63402963 2.909987 -1.0195706
-0.62522364 2.909987 -1.0195706
-0.61641765 2.909987 -1.0195706
-0.71621871 2.9120908 -1.0140899
-0.70741266 2.9120908 -1.0140899
-0.64577091 2.9120908 -1.0140899
-0.63402963 2.9120908 -1.0140899
0.43921059 2.9706047 -1.0154928
0.44518623 2.9706047 -1.0154928
0.19596128 2.9995716 -1.0190274
0.20500565 2.9995716 -1.0190274
0.21405001 2.9995716 -1.0190274
0.22309437 2.9995716 -1.0190274
0.23515353 2.9995716 -1.0190274
0.24419791 2.9995716 -1.0190274
0.25625706 2.9995716 -1.0190274
0.26530141 2.9995716 -1.0190274
0.27434579 2.9995716 -1.0190274
0.28339016 2.9995716 -1.0190274
0.29544932 2.9995716 -1.0190274
0.30449367 2.9995716 -1.0190274
0.31353801 2.9995716 -1.0190274
0.3255972 2.9995716 -1.0190274
0.33464158 2.9995716 -1.0190274
0.34368593 2.9995716 -1.0190274
0.35574508 2.9995716 -1.0190274
0.37383384 2.9995716 -1.0190274
0.41604084 2.9995716 -1.0190274
0.42508522 2.9995716 -1.0190274
0.4341296 2.9995716 -1.0190274
0.19596128 3.0017323 -1.0133983
0.20500565 3.0017323 -1.0133983
0.21405001 3.0017323 -1.0133983
0.22309437 3.0017323 -1.0133983
0.23515353 3.0017323 -1.0133983
0.25625706 3.0017323 -1.0133983
0.26228663 3.0017323 -1.0133983
0.27434579 3.0017323 -1.0133983
0.28339016 3.0017323 -1.0133983
0.29544932 3.0017323 -1.0133983
0.30449367 3.0017323 -1.0133983
0.31353801 3.0017323 -1.0133983
0.328612 3.0017323 -1.0133983
0.33464158 3.0017323 -1.0133983
0.34368593 3.0017323 -1.0133983
0.35574508 3.0017323 -1.0133983
0.36478946 3.0017323 -1.0133983
0.37383384 3.0017323 -1.0133983
0.38589299 3.0017323 -1.0133983
0.39493734 3.0017323 -1.0133983
0.40398169 3.0017323 -1.0133983
0.41604084 3.0017323 -1.0133983
0.42508522 3.0017323 -1.0133983
0.43111479 3.0017323 -1.0133983
-0.58715254 3.0323365 -1.0141057
0.0091267228 3.0323365 -1.0141057
0.015211205 3.0334268 -1.0112655
0.05780258 3.0334268 -1.0112655
0.066929303 3.0323362 -1.0141057
0.076056026 3.0323365 -1.0141057
0.085182756 3.0323362 -1.0141057
0.094309472 3.0323365 -1.0141057
0.1034362 3.0323362 -1.0141057
0.11560516 3.0323362 -1.0141057
0.12473188 3.0323365 -1.0141057
0.13385861 3.0323362 -1.0141057
0.14602757 3.0323365 -1.0141057
0.15515429 3.0323365 -1.0141057
0.16732326 3.0323365 -1.0141057
0.17644998 3.0323365 -1.0141057
0.18557671 3.0312462 -1.0169458
0.25250602 3.0312462 -1.0169458
-0.0030701971 3.0635023 -1.0148257
0.0030701971 3.0635023 -1.0148257
0.027631775 3.0635023 -1.0148257
0.036842365 3.0635023 -1.0148257
0.046052955 3.0635023 -1.0148257
0.055263549 3.0635023 -1.0148257
-0.59184611 3.0952454 -1.0155588
-0.58564878 3.0941348 -1.0184517
-0.4740966 3.0963557 -1.012666
-0.28197902 3.0952454 -1.0155588
-0.27578169 3.0952454 -1.0155588
-0.26648569 3.0952454 -1.0155588
-0.21380827 3.0963557 -1.012666
-0.20451225 3.0952454 -1.0155588
-0.19521625 3.0952454 -1.0155588
-0.18592024 3.0952454 -1.0155588
-0.17352556 3.0952454 -1.0155588
-0.16422954 3.0952454 -1.0155588
-0.15493354 3.0952451 -1.0155588
-0.14563753 3.0952454 -1.0155588
-0.13634151 3.0952454 -1.0155588
-0.12394683 3.0952451 -1.0155588
-0.11465082 3.0952454 -1.0155588
-0.1053548 3.0952454 -1.0155588
-0.096058793 3.0952454 -1.0155588
-0.086762778 3.0952451 -1.0155588
-0.074368089 3.0952454 -1.0155588
-0.065072082 3.0952454 -1.0155588
-0.055776071 3.0952454 -1.0155588
-0.043381389 3.0952454 -1.0155588
-0.034085378 3.0952454 -1.0155588
-0.025822254 3.0956154 -1.0145946
-0.015493353 3.0952454 -1.0155588
-0.0061973413 3.0952454 -1.0155588
0.0030986706 3.0963557 -1.012666
-0.59113091 3.1287026 -1.0133855
-0.58487552 3.1287026 -1.0133855
-0.5754925 3.1287026 -1.0133855
-0.56610948 3.1287026 -1.0133855
-0.55672646 3.1287026 -1.0133855
-0.54421574 3.1287026 -1.0133855
-0.53483272 3.1298234 -1.0104656
-0.52857733 3.1298234 -1.0104656
-0.51606667 3.1298234 -1.0104656
-0.49521551 3.128329 -1.0143589
-0.48478988 3.1298234 -1.0104656
-0.47227916 3.1287026 -1.0133855
-0.46602383 3.1287026 -1.0133855
-0.45664078 3.1287026 -1.0133855
-0.44413006 3.1287026 -1.0133855
-0.43474704 3.1287026 -1.0133855
-0.42536402 3.1287026 -1.0133855
-0.41598099 3.1287026 -1.0133855
-0.40659797 3.1287026 -1.0133855
-0.39408728 3.1287026 -1.0133855
-0.38470423 3.1287026 -1.0133855
-0.37532121 3.1287026 -1.0133855
-0.36593816 3.1287026 -1.0133855
-0.35655516 3.1287026 -1.0133855
-0.34404445 3.1287024 -1.0133855
-0.33466139 3.1275816 -1.0163054
-0.32527837 3.1275816 -1.0163054
-0.31589535 3.1287026 -1.0133855
-0.30546975 3.128329 -1.0143589
-0.29504415 3.128329 -1.0143589
-0.27210787 3.1298234 -1.0104656
-0.25751206 3.128329 -1.0143589
-0.24500133 3.128329 -1.0143589
-0.23457575 3.1287026 -1.0133855
-0.22623527 3.128329 -1.0143589
-0.51462853 3.1616602 -1.0141184
-0.72452903 2.8867259 -1.0052569
-0.71870947 2.8867259 -1.0052569
-0.69543147 2.8867259 -1.0052569
-0.68670219 2.8867259 -1.0052569
-0.67506313 2.8867259 -1.0052569
-0.66342413 2.8867259 -1.0052569
-0.65469486 2.8867259 -1.0052569
-0.64887536 2.8867259 -1.0052569
-0.61686802 2.8867259 -1.0052569
-0.6081388 2.8867259 -1.0052569
-0.71621871 2.9141946 -1.0086092
-0.70447731 2.9141946 -1.0086092
-0.64577091 2.9152467 -1.0058688
-0.63402963 2.9152467 -1.0058688
-0.62522364 2.9152465 -1.0058688
-0.619353 2.9152465 -1.0058688
-0.61299789 2.9463949 -1.000962
0.4372187 2.9741738 -1.0061949
0.44518623 2.9738169 -1.0071247
-0.62406129 3.0049734 -1.0049546
-0.61803174 3.0049734 -1.0049546
-0.59391344 3.0060539 -1.00214
-0.58788383 3.0060539 -1.00214
0.15978381 3.0049734 -1.0049546
0.18792184 3.0053337 -1.0040164
0.19596128 3.0049734 -1.0049546
0.20500565 3.0049734 -1.0049546
0.21405001 3.0049734 -1.0049546
0.22309437 3.0049734 -1.0049546
0.23515353 3.0049734 -1.0049546
0.24419791 3.0049734 -1.0049546
0.25424719 3.0053337 -1.0040164
0.26530141 3.0049734 -1.0049546
0.27434579 3.0049734 -1.0049546
0.28339016 3.0049734 -1.0049546
0.29444438 3.0046132 -1.0058929
0.30449367 3.0049734 -1.0049546
0.31353801 3.0049734 -1.0049546
0.3255972 3.0049734 -1.0049546
0.33464158 3.0049734 -1.0049546
0.34368595 3.0049734 -1.0049546
0.35574508 3.0049734 -1.0049546
0.36478946 3.0049734 -1.0049546
0.37383381 3.0049734 -1.0049546
0.38589296 3.0049734 -1.0049546
0.39493734 3.0049734 -1.0049546
0.40398169 3.0049734 -1.0049546
0.41604084 3.0049734 -1.0049546
0.42508522 3.0049734 -1.0049546
0.43111479 3.0038931 -1.0077692
-0.60540599 3.0356071 -1.0055852
-0.58715254 3.0356071 -1.0055852
0.0091267228 3.0356071 -1.0055852
0.015211205 3.0356071 -1.0055852
0.021295687 3.0356071 -1.0055852
0.066929303 3.0356071 -1.0055852
0.076056026 3.0356071 -1.0055852
0.085182749 3.0356071 -1.0055852
0.094309472 3.0356071 -1.0055852
0.1034362 3.0356071 -1.0055852
0.11560516 3.0356071 -1.0055852
0.12473188 3.0356071 -1.0055852
0.13385861 3.0356071 -1.0055852
0.14602757 3.0356071 -1.0055852
0.15515429 3.0356071 -1.0055852
0.16732326 3.0356071 -1.0055852
0.17644998 3.0356071 -1.0055852
0.18557671 3.0356071 -1.0055852
-0.02149138 3.0657029 -1.0090932
0.0030701971 3.0657029 -1.0090932
0.025584975 3.0671699 -1.0052714
0.035818964 3.0664365 -1.0071822
0.046052955 3.0657029 -1.0090932
0.052193351 3.0657029 -1.0090932
-0.59184611 3.0985765 -1.0068803
-0.48029396 3.0985765 -1.0068803
-0.4740966 3.0985765 -1.0068803
-0.28197902 3.0985765 -1.0068803
-0.27578169 3.0985765 -1.0068803
-0.26648569 3.0985765 -1.0068803
-0.21380827 3.0985765 -1.0068803
-0.20451227 3.0985765 -1.0068803
-0.19521625 3.0985765 -1.0068803
-0.18592024 3.0985765 -1.0068803
-0.17352556 3.0985765 -1.0068803
-0.16422954 3.0985765 -1.0068803
-0.15493354 3.0985765 -1.0068803
-0.14563753 3.0985765 -1.0068803
-0.13634151 3.0985765 -1.0068803
-0.12394683 3.0985765 -1.0068803
-0.11465082 3.0985765 -1.0068803
-0.1053548 3.0985765 -1.0068803
-0.096058793 3.0985765 -1.0068803
-0.086762778 3.0985765 -1.0068803
-0.074368089 3.0985765 -1.0068803
-0.065072082 3.0985765 -1.0068803
-0.0526774 3.0985765 -1.0068803
-0.043381389 3.0985765 -1.0068803
-0.034085378 3.0985765 -1.0068803
-0.027888035 3.0985765 -1.0068803
-0.015493353 3.0985765 -1.0068803
-0.0061973413 3.0985765 -1.0068803
0.0030986706 3.0985765 -1.0068803
-0.59184611 3.1007977 -1.0010946
-0.48649129 3.1007977 -1.0010946
-0.4740966 3.1007977 -1.0010946
-0.33155775 3.1007977 -1.0010946
-0.32536042 3.1007977 -1.0010946
-0.31916308 3.1007977 -1.0010946
-0.30676839 3.1007977 -1.0010946
-0.28507769 3.1007977 -1.0010946
-0.27578169 3.1007977 -1.0010946
-0.26338699 3.1007977 -1.0010946
-0.25099233 3.1007977 -1.0010946
-0.23859765 3.1007977 -1.0010946
-0.22000562 3.1007977 -1.0010946
-0.21380827 3.1007977 -1.0010946
-0.20451227 3.1007977 -1.0010946
-0.19521625 3.1007977 -1.0010946
-0.18592024 3.1007977 -1.0010946
-0.17352556 3.1007977 -1.0010946
-0.16422954 3.1007977 -1.0010946
-0.15493354 3.1007977 -1.0010946
-0.14563753 3.1007977 -1.0010946
-0.13634151 3.1007977 -1.0010946
-0.12394683 3.1007977 -1.0010946
-0.11465082 3.1007977 -1.0010946
-0.1053548 3.1007977 -1.0010946
-0.096058793 3.1007977 -1.0010946
-0.086762778 3.1007977 -1.0010946
-0.074368089 3.1007977 -1.0010946
-0.065072082 3.1007977 -1.0010946
-0.055776071 3.1007977 -1.0010946
-0.043381389 3.1007977 -1.0010946
-0.034085378 3.1007977 -1.0010946
-0.027888035 3.1007977 -1.0010946
-0.015493353 3.1007977 -1.0010946
-0.0061973413 3.1007977 -1.0010946
0.0030986706 3.1007977 -1.0010946
-0.59113091 3.1320651 -1.0046258
-0.58487552 3.1320651 -1.0046258
-0.5754925 3.1320651 -1.0046258
-0.56610948 3.1320651 -1.0046258
-0.55672646 3.1320651 -1.0046258
-0.54421574 3.1320651 -1.0046258
-0.53483272 3.1320651 -1.0046258
-0.52544963 3.1320651 -1.0046258
-0.51606667 3.1320651 -1.0046258
-0.50355595 3.1320651 -1.0046258
-0.4973006 3.1320651 -1.0046258
-0.48478988 3.1320651 -1.0046258
-0.47227916 3.1320651 -1.0046258
-0.46602383 3.1320651 -1.0046258
-0.45664078 3.1320651 -1.0046258
-0.44413006 3.1320651 -1.0046258
-0.43474704 3.1320651 -1.0046258
-0.42536402 3.1320651 -1.0046258
-0.41598099 3.1320651 -1.0046258
-0.40659797 3.1320651 -1.0046258
-0.39408726 3.1320651 -1.0046258
-0.38470423 3.1320651 -1.0046258
-0.37532121 3.1320651 -1.0046258
-0.36593816 3.1320651 -1.0046258
-0.35655516 3.1320651 -1.0046258
-0.34717211 3.1320651 -1.0046258
-0.30338463 3.1320651 -1.0046258
-0.29400158 3.1320651 -1.0046258
-0.27523553 3.1320651 -1.0046258
-0.26585251 3.1320651 -1.0046258
-0.25646949 3.1320651 -1.0046258
-0.24395877 3.1320651 -1.0046258
-0.23457575 3.1320651 -1.0046258
-0.22832039 3.1320651 -1.0046258
0.8309834 2.7021401 -0.99612761
-0.72452903 2.8888113 -0.99982393
-0.71870947 2.8888113 -0.99982393
-0.68670219 2.8888113 -0.99982393
-0.67506313 2.8888113 -0.99982393
-0.66342413 2.8888113 -0.99982393
-0.65469486 2.8888113 -0.99982393
-0.64887536 2.8888113 -0.99982393
-0.6081388 2.8888113 -0.99982393
-0.72452903 2.890897 -0.99439096
-0.71579969 2.890897 -0.99439096
-0.70416069 2.890897 -0.99439096
-0.69543147 2.890897 -0.99439096
-0.68670219 2.890897 -0.99439096
-0.67506313 2.890897 -0.99439096
-0.66342413 2.890897 -0.99439096
-0.65469486 2.890897 -0.99439096
-0.64887536 2.890897 -0.99439096
-0.60522902 2.890897 -0.99439096
-0.64577091 2.9184024 -0.99764776
-0.63402963 2.9184024 -0.99764776
-0.61641765 2.9184024 -0.99764776
-0.64577091 2.9205062 -0.992167
-0.63402963 2.9205062 -0.992167
-0.62522364 2.9205062 -0.992167
-0.61641765 2.9205062 -0.992167
-0.62484324 2.9485176 -0.99543273
-0.61595923 2.9485176 -0.99543273
-0.60652888 2.9791706 -0.99317783
0.29579487 2.9791706 -0.99317783
0.42725927 2.9791706 -0.99317783
0.43622279 2.9780998 -0.99596721
0.44518623 2.9780998 -0.99596721
-0.59391344 3.008215 -0.99651098
-0.58788383 3.008215 -0.99651098
0.15978381 3.008215 -0.99651098
0.18993171 3.008215 -0.99651098
0.19596128 3.008215 -0.99651098
0.20500565 3.008215 -0.99651098
0.21405001 3.008215 -0.99651098
0.22007959 3.008215 -0.99651098
0.25022748 3.008215 -0.99651098
0.26530141 3.008215 -0.99651098
0.27434579 3.008215 -0.99651098
0.28037536 3.008215 -0.99651098
0.3527303 3.008215 -0.99651098
0.36478946 3.008215 -0.99651098
0.38589299 3.008215 -0.99651098
0.39493734 3.008215 -0.99651098
0.40398169 3.008215 -0.99651098
0.41604084 3.008215 -0.99651098
0.42508522 3.008215 -0.99651098
0.43111479 3.008215 -0.99651098
-0.62406129 3.0103757 -0.99088192
-0.60597259 3.0103757 -0.99088192
-0.59391344 3.0103757 -0.99088192
-0.58486903 3.0103757 -0.99088192
0.15676902 3.0103757 -0.99088192
0.16581339 3.0103757 -0.99088192
0.18691692 3.0103757 -0.99088192
0.19596128 3.0103757 -0.99088192
0.20500565 3.0103757 -0.99088192
0.21405001 3.0103757 -0.99088192
0.22007959 3.0103757 -0.99088192
0.25022748 3.0103757 -0.99088192
0.26530141 3.0103757 -0.99088192
0.27434579 3.0103757 -0.99088192
0.28339016 3.0103757 -0.99088192
0.35875988 3.0103757 -0.99088192
0.36478946 3.0103757 -0.99088192
0.37081903 3.0103757 -0.99088192
0.38890776 3.0103757 -0.99088192
0.40398169 3.0103757 -0.99088192
0.42508522 3.0103757 -0.99088192
-0.60540599 3.038878 -0.99706459
-0.59932148 3.0399683 -0.99422443
-0.58715254 3.0399683 -0.99422443
0.0091267228 3.038878 -0.99706459
0.015211205 3.038878 -0.99706459
0.021295687 3.0377877 -0.99990481
0.039549135 3.0399683 -0.99422443
0.045633614 3.0399683 -0.99422443
0.05577442 3.0392416 -0.99611789
0.066929303 3.038878 -0.99706465
0.076056026 3.038878 -0.99706459
0.085182756 3.038878 -0.99706465
0.094309472 3.038878 -0.99706459
0.1034362 3.038878 -0.99706459
0.11459108 3.0385144 -0.99801135
0.12473188 3.038878 -0.99706459
0.13385861 3.038878 -0.99706459
0.14602757 3.038878 -0.99706465
0.17644998 3.0377877 -0.99990481
-0.058333743 3.0701039 -0.99762803
-0.02149138 3.0712042 -0.99476177
0.015350985 3.0701039 -0.99762803
0.024561577 3.0712042 -0.99476177
-0.59494478 3.1030185 -0.99530888
-0.48649129 3.1030185 -0.99530888
-0.4740966 3.1030185 -0.99530888
-0.33465642 3.1030185 -0.99530888
-0.32536042 3.1030185 -0.99530888
-0.31606442 3.1030185 -0.99530888
-0.30676839 3.1030185 -0.99530888
-0.28197902 3.1030185 -0.99530888
-0.22000562 3.1030185 -0.99530888
-0.21380827 3.1030185 -0.99530888
-0.20451227 3.1030185 -0.99530888
-0.19521625 3.1030185 -0.99530888
-0.18592024 3.1030185 -0.99530888
-0.17352556 3.1030185 -0.99530888
-0.16422954 3.1030185 -0.99530888
-0.15493354 3.1030185 -0.99530888
-0.14563753 3.1030185 -0.99530888
-0.13634151 3.1030185 -0.99530888
-0.12394683 3.1030185 -0.99530888
-0.11465082 3.1030185 -0.99530888
-0.1053548 3.1030185 -0.99530888
-0.096058793 3.1030185 -0.99530888
-0.086762778 3.1030185 -0.99530888
-0.074368089 3.1030185 -0.99530888
-0.065072082 3.1030185 -0.99530888
-0.0526774 3.1030185 -0.99530888
-0.043381389 3.1030185 -0.99530888
-0.027888035 3.1030185 -0.99530888
-0.015493353 3.1030185 -0.99530888
-0.0061973413 3.1030185 -0.99530888
0.0030986706 3.1030185 -0.99530888
-0.60572672 3.1358013 -0.9948926
-0.59425855 3.135428 -0.99586588
-0.58487552 3.1354277 -0.99586594
-0.5754925 3.1354277 -0.99586594
-0.56610948 3.1354277 -0.99586594
-0.55672646 3.1354277 -0.99586594
-0.54421574 3.1354277 -0.99586594
-0.53483272 3.1354277 -0.99586594
-0.52544963 3.1354277 -0.99586594
-0.51606667 3.1354277 -0.99586594
-0.50668359 3.135428 -0.99586588
-0.4973006 3.1354277 -0.99586594
-0.45664078 3.1354277 -0.99586594
-0.44413006 3.1354277 -0.99586594
-0.43474704 3.1354277 -0.99586594
-0.42536405 3.1354277 -0.99586594
-0.41598099 3.1354277 -0.99586594
-0.40659797 3.135428 -0.99586588
-0.39408728 3.135428 -0.99586588
-0.38470423 3.1354277 -0.99586594
-0.37532121 3.1354277 -0.99586594
-0.36593816 3.1354277 -0.99586594
-0.35759771 3.1350543 -0.99683923
-0.27210787 3.1354277 -0.99586594
-0.26585251 3.1343069 -0.99878585
-0.25959715 3.1343069 -0.99878585
-0.24083111 3.1343069 -0.99878585
-0.23457575 3.1343069 -0.99878585
0.8309834 2.7060714 -0.9858861
-0.72452903 2.8940253 -0.98624146
-0.71579969 2.8940253 -0.98624146
-0.70416069 2.8940253 -0.98624146
-0.69543147 2.8940253 -0.98624146
-0.68670219 2.8940253 -0.98624146
-0.67506313 2.8940253 -0.98624146
-0.66342413 2.8940253 -0.98624146
-0.65469486 2.8940253 -0.98624146
-0.64887536 2.8940253 -0.98624146
-0.6197778 2.8929825 -0.98895794
-0.719154 2.9236619 -0.98394597
-0.64283562 2.9236619 -0.98394597
-0.63402963 2.9236619 -0.98394591
-0.62522364 2.9236619 -0.98394597
-0.61641765 2.9247139 -0.98120558
-0.61549234 2.9823828 -0.9848097
-0.60652888 2.9823828 -0.9848097
0.22408703 2.9823828 -0.9848097
0.23305053 2.9823828 -0.9848097
0.24201399 2.9823828 -0.9848097
0.25396532 2.9823828 -0.9848097
0.28782734 2.9820259 -0.98573947
0.29579487 2.9823828 -0.9848097
0.30475837 2.9823828 -0.9848097
0.31670967 2.9823828 -0.9848097
0.32567316 2.9823828 -0.9848097
0.33463663 2.9823828 -0.9848097
0.34559202 2.9827397 -0.98387986
0.35555142 2.981312 -0.98759907
0.36750275 2.981312 -0.98759907
0.37547028 2.9827397 -0.98387986
0.39140534 2.9834535 -0.98202032
0.40933231 2.9834535 -0.98202032
0.41530797 2.9834535 -0.98202032
0.42725927 2.9834535 -0.98202032
0.43622276 2.9823828 -0.9848097
0.44518623 2.9823828 -0.9848097
-0.61200213 3.0125365 -0.9852528
-0.60597259 3.0125365 -0.9852528
-0.58788383 3.0125365 -0.9852528
0.11757676 3.0125365 -0.9852528
0.15676902 3.0125365 -0.9852528
0.16581339 3.0125365 -0.9852528
0.17485775 3.0125365 -0.9852528
0.18691692 3.0125365 -0.9852528
0.19596128 3.0125365 -0.9852528
0.20500565 3.0125365 -0.9852528
0.21405001 3.0125365 -0.9852528
0.25022748 3.0125365 -0.9852528
0.26530141 3.0125365 -0.9852528
0.27434579 3.0125365 -0.9852528
0.28339016 3.0125365 -0.9852528
0.37081903 3.0125365 -0.9852528
0.38589299 3.0125365 -0.9852528
0.40398169 3.0125365 -0.9852528
0.0091267228 3.0432389 -0.98570395
0.015211205 3.0443292 -0.98286378
0.036506891 3.0432389 -0.98570395
0.045633614 3.0432389 -0.98570395
0.054760341 3.0432389 -0.98570395
0.066929303 3.0432389 -0.98570395
0.076056026 3.0432389 -0.98570395
0.084168673 3.0428753 -0.98665065
0.094309472 3.0432389 -0.98570395
0.10445029 3.0428753 -0.98665065
0.11459108 3.0428753 -0.98665065
0.12473188 3.0421486 -0.98854411
0.13385861 3.0421486 -0.98854411
0.14298533 3.0432389 -0.98570395
-0.058333743 3.0756054 -0.98329663
-0.046052955 3.0767055 -0.98043036
-0.035818964 3.0759723 -0.98234123
-0.023538178 3.0759723 -0.98234123
-0.015350985 3.0767055 -0.98043036
-0.0061403941 3.0767055 -0.98043036
0.0030701971 3.0767055 -0.98043036
0.024561577 3.0745051 -0.9861629
-0.48339263 3.1063499 -0.98663032
-0.4740966 3.1063499 -0.98663032
-0.4648006 3.1063497 -0.98663032
-0.35014978 3.1074603 -0.98373741
-0.34395245 3.1063499 -0.98663032
-0.33465642 3.1063499 -0.98663026
-0.32536042 3.1063499 -0.98663032
-0.31606442 3.1063499 -0.98663032
-0.30366972 3.1063499 -0.98663032
-0.29437372 3.1063499 -0.98663032
-0.28507769 3.1063499 -0.98663032
-0.27578169 3.1063499 -0.98663032
-0.26338699 3.1074603 -0.98373741
-0.25305811 3.10672 -0.98566598
-0.24479498 3.1063499 -0.98663032
-0.23549896 3.1074603 -0.98373741
-0.2231043 3.1063497 -0.98663032
-0.21380827 3.1063499 -0.98663032
-0.20451225 3.1063499 -0.98663026
-0.19521625 3.1063499 -0.98663032
-0.18592024 3.1063499 -0.98663032
-0.17352556 3.1063499 -0.98663032
-0.16422954 3.1063499 -0.98663032
-0.15493354 3.1063499 -0.98663032
-0.14563753 3.1063499 -0.98663032
-0.13634151 3.1063499 -0.98663026
-0.12394683 3.1063499 -0.98663026
-0.11465082 3.1063499 -0.98663032
-0.1053548 3.1063499 -0.98663032
-0.096058793 3.1063499 -0.98663032
-0.086762786 3.1063499 -0.98663026
-0.074368089 3.1063499 -0.98663026
-0.065072082 3.1063499 -0.98663032
-0.0526774 3.1052394 -0.98952317
-0.60364157 3.1387904 -0.98710608
-0.59425855 3.1387904 -0.98710608
-0.58487552 3.1387904 -0.98710608
-0.5754925 3.1387904 -0.98710608
-0.56610948 3.1387904 -0.98710608
-0.55672646 3.1387904 -0.98710608
-0.54421574 3.1387904 -0.98710608
-0.53483272 3.1387904 -0.98710608
-0.52544963 3.1387904 -0.98710608
-0.51606667 3.1387904 -0.98710608
-0.50668359 3.1387904 -0.98710608
-0.4973006 3.1387904 -0.98710608
-0.45664078 3.1387904 -0.98710608
-0.44413006 3.1387904 -0.98710608
-0.43474704 3.1387904 -0.98710608
-0.42536402 3.1387904 -0.98710608
-0.41598099 3.1387904 -0.98710608
-0.40659797 3.1387904 -0.98710608
-0.39408726 3.1387904 -0.98710608
-0.38470423 3.1387904 -0.98710608
-0.37532121 3.1387904 -0.98710608
-0.36593816 3.1387904 -0.98710608
-0.59425855 3.141032 -0.98126626
-0.58487552 3.141032 -0.98126626
-0.5754925 3.141032 -0.98126626
-0.56610948 3.141032 -0.98126626
-0.55672646 3.141032 -0.98126626
-0.54421574 3.141032 -0.98126626
-0.53483272 3.141032 -0.98126626
-0.52544963 3.141032 -0.98126626
-0.51606667 3.141032 -0.98126626
-0.50668359 3.141032 -0.98126626
-0.49417293 3.141032 -0.98126626
-0.48478988 3.141032 -0.98126626
-0.45664078 3.141032 -0.98126626
-0.44413006 3.141032 -0.98126626
-0.43474704 3.141032 -0.98126626
-0.42536402 3.141032 -0.98126626
-0.41598099 3.141032 -0.98126626
-0.40659797 3.141032 -0.98126626
-0.39408726 3.141032 -0.98126626
-0.38470423 3.141032 -0.98126626
-0.37532121 3.141032 -0.98126626
-0.36593816 3.141032 -0.98126626
-0.35968283 3.141032 -0.98126626
0.8309834 2.7090199 -0.97820503
0.83372593 2.7109857 -0.97308433
-0.72452903 2.8981962 -0.97537553
-0.71870947 2.8981962 -0.97537553
-0.70416069 2.8981965 -0.97537547
-0.69543147 2.8981962 -0.97537553
-0.68670219 2.8981962 -0.97537553
-0.67506313 2.8981962 -0.97537553
-0.66342413 2.8981962 -0.97537547
-0.65469486 2.8981962 -0.97537553
-0.64596558 2.8981962 -0.97537553
-0.719154 2.9278698 -0.97298455
-0.64283562 2.9278698 -0.97298455
-0.63402963 2.9278696 -0.97298449
-0.62522364 2.9278698 -0.97298455
-0.61739612 2.9275188 -0.97389793
-0.61892056 2.9559464 -0.97608018
-0.60707521 2.954885 -0.97884488
-0.62445587 2.9866657 -0.97365218
-0.61449641 2.9863088 -0.97458196
-0.60652888 2.9877365 -0.97086281
-0.58262628 2.9877365 -0.97086281
0.21811138 2.985595 -0.97644156
0.22408703 2.9866657 -0.97365218
0.23305053 2.985595 -0.97644156
0.24201399 2.985595 -0.97644156
0.25396532 2.985595 -0.97644156
0.28981924 2.9866657 -0.97365218
0.29579487 2.9866657 -0.97365218
0.30475837 2.9866657 -0.97365218
0.31670967 2.9866657 -0.97365218
0.32567316 2.9866657 -0.97365218
0.33463663 2.9866657 -0.97365218
0.34658796 2.9866657 -0.97365218
0.35555142 2.9866657 -0.97365218
0.36351895 2.9870226 -0.97272235
0.37547028 2.9870226 -0.97272235
0.39339724 2.9870226 -0.97272235
0.40734044 2.9870226 -0.97272235
0.41530797 2.9866657 -0.97365218
0.42427146 2.9866657 -0.97365218
0.43622276 2.9866657 -0.97365218
0.44518623 2.9866657 -0.97365218
-0.62406129 3.0157776 -0.97680914
-0.61200213 3.0168581 -0.97399461
-0.60597259 3.0157776 -0.97680914
-0.59692824 3.0157776 -0.9768092
-0.58185422 3.0146973 -0.97962373
0.087428875 3.0168581 -0.97399461
0.099488035 3.0168581 -0.97399461
0.11757676 3.0168581 -0.97399461
0.12662113 3.0168581 -0.97399461
0.13566551 3.0168581 -0.97399461
0.14772466 3.0157776 -0.97680914
0.15676902 3.0157776 -0.97680914
0.16581339 3.0157776 -0.97680914
0.17485775 3.0157776 -0.97680914
0.18691692 3.0157778 -0.97680914
0.19596128 3.0157776 -0.97680914
0.20500565 3.0157778 -0.97680914
0.21405001 3.0157776 -0.97680914
0.22007959 3.0157776 -0.97680914
0.23515353 3.0146973 -0.97962373
0.24419791 3.0146973 -0.97962373
0.25324225 3.0157776 -0.97680914
0.26530141 3.0157776 -0.97680914
0.27434579 3.0157776 -0.97680914
0.28339016 3.0157776 -0.97680914
0.38890776 3.0146973 -0.97962373
0.0091267228 3.0475998 -0.97434318
0.015211205 3.0475998 -0.97434318
0.024337929 3.0486901 -0.97150302
0.036506891 3.0475998 -0.97434318
0.045633614 3.0475998 -0.97434318
0.054760337 3.0465097 -0.9771834
0.06388706 3.0465097 -0.9771834
-0.055263549 3.0789061 -0.97469783
-0.046052955 3.0789061 -0.97469783
-0.036842365 3.0789061 -0.97469783
-0.024561577 3.0789061 -0.97469783
-0.015350985 3.0789061 -0.97469783
-0.0061403941 3.0789061 -0.97469783
0.0030701971 3.0789061 -0.97469783
-0.48339263 3.1096814 -0.97795171
-0.4740966 3.1096814 -0.97795171
-0.4648006 3.1096814 -0.97795171
-0.35324845 3.1096814 -0.97795171
-0.34395245 3.1096814 -0.97795171
-0.33465642 3.1096814 -0.97795171
-0.32536042 3.1096814 -0.97795171
-0.31606442 3.1096814 -0.97795171
-0.30366972 3.1096814 -0.97795171
-0.29437372 3.1096814 -0.97795171
-0.28507769 3.1096814 -0.97795171
-0.27578169 3.1096814 -0.97795171
-0.26648569 3.1096814 -0.97795171
-0.25409099 3.1096814 -0.97795171
-0.24479498 3.1096814 -0.97795171
-0.23549896 3.1096814 -0.97795171
-0.2231043 3.1096814 -0.97795171
-0.21380827 3.1096814 -0.97795171
-0.20451227 3.1096814 -0.97795171
-0.19521625 3.1096814 -0.97795171
-0.18592024 3.1096814 -0.97795171
-0.17352556 3.1096814 -0.97795171
-0.16422954 3.1096814 -0.97795171
-0.15803221 3.1096814 -0.97795171
-0.14563753 3.1096814 -0.97795171
-0.13634151 3.1096814 -0.97795171
-0.12394683 3.1096814 -0.97795171
-0.11465082 3.1096814 -0.97795171
-0.1053548 3.1096814 -0.97795171
-0.096058793 3.1096814 -0.97795171
-0.086762778 3.1096814 -0.97795171
-0.4740966 3.1119022 -0.972166
-0.4648006 3.1119022 -0.972166
-0.35014978 3.1119022 -0.972166
-0.34395245 3.1119022 -0.972166
-0.33465642 3.1119022 -0.972166
-0.32536042 3.1119022 -0.972166
-0.31606442 3.1119022 -0.972166
-0.30366972 3.1119022 -0.972166
-0.29437372 3.1119022 -0.972166
-0.28507769 3.1119022 -0.972166
-0.27578169 3.1119022 -0.972166
-0.26648569 3.1119022 -0.972166
-0.25409099 3.1119022 -0.972166
-0.24479498 3.1119022 -0.972166
-0.23549896 3.1119022 -0.972166
-0.2231043 3.1119022 -0.972166
-0.21380827 3.1119022 -0.972166
-0.20451227 3.1119022 -0.972166
-0.19521625 3.1119022 -0.972166
-0.18592024 3.1119022 -0.972166
-0.17662422 3.1119022 -0.972166
-0.13634151 3.1119022 -0.972166
-0.12394683 3.1119022 -0.972166
-0.11465082 3.1119022 -0.972166
-0.1053548 3.1119022 -0.972166
-0.096058793 3.1119022 -0.972166
-0.089861453 3.1119022 -0.972166
-0.61615229 3.1432736 -0.97542638
-0.59425855 3.1432736 -0.97542638
-0.58487552 3.1432736 -0.97542638
-0.5754925 3.1432736 -0.97542638
-0.56610948 3.1432736 -0.97542638
-0.55672646 3.1432736 -0.97542638
-0.54421574 3.1432736 -0.97542638
-0.53483272 3.1432736 -0.97542638
-0.52544963 3.1432736 -0.97542638
-0.51606667 3.1432736 -0.97542638
-0.50668359 3.1432736 -0.97542638
-0.4973006 3.1432736 -0.97542638
-0.46602383 3.1432736 -0.97542638
-0.45664078 3.1432736 -0.97542638
-0.44413006 3.1432736 -0.97542638
-0.43474704 3.1432736 -0.97542638
-0.42536402 3.1432736 -0.97542638
-0.41598099 3.1432736 -0.97542638
-0.40659797 3.1432736 -0.97542638
-0.39408726 3.1432736 -0.97542638
-0.38470423 3.1432736 -0.97542638
-0.37532121 3.1432736 -0.97542638
-0.36593816 3.1432736 -0.97542638
-0.35968283 3.1432736 -0.97542638
-0.61565989 3.1775005 -0.97285306
-0.60934544 3.1775005 -0.97285306
0.83372593 2.7139339 -0.9654032
-0.72452903 2.9023674 -0.96450955
-0.71870947 2.9023674 -0.96450955
-0.70416075 2.9023674 -0.96450949
-0.69543147 2.9023674 -0.96450955
-0.68670219 2.9023674 -0.96450955
-0.67506319 2.9023674 -0.96450949
-0.66342413 2.9023674 -0.96450949
-0.65469486 2.9023674 -0.96450955
-0.64596558 2.9023674 -0.96450949
-0.719154 2.9310255 -0.9647634
-0.64283562 2.9310255 -0.9647634
-0.63402963 2.9310255 -0.9647634
-0.62522364 2.9310255 -0.9647634
-0.619353 2.9310255 -0.9647634
-0.62484324 2.95913 -0.96778625
-0.62484324 2.9612525 -0.96225697
-0.62445587 2.9898779 -0.96528405
0.22408703 2.9898779 -0.96528405
0.23305053 2.9898779 -0.96528405
0.24201399 2.9898779 -0.96528405
0.28981924 2.9898779 -0.96528405
0.29579487 2.9898779 -0.96528405
0.30475837 2.9898779 -0.96528405
0.31670967 2.9898779 -0.96528405
0.32567316 2.9898779 -0.96528405
0.33463663 2.9898779 -0.96528405
0.34658796 2.9898779 -0.96528405
0.35555142 2.9898779 -0.96528405
0.36451492 2.9898779 -0.96528405
0.37646621 2.9898779 -0.96528405
0.38542971 2.9898779 -0.96528405
0.39439318 2.9898779 -0.96528405
0.40634447 2.9898779 -0.96528405
0.41530797 2.9898779 -0.96528405
0.42427146 2.9898779 -0.96528405
0.43622276 2.9898779 -0.96528405
0.44518623 2.9898779 -0.96528405
-0.61200213 3.0190189 -0.96836555
-0.60597259 3.0190189 -0.96836555
-0.59692824 3.0190189 -0.96836555
0.069340147 3.0190189 -0.96836555
0.075369723 3.0190189 -0.96836555
0.084414087 3.0190189 -0.96836555
0.096473247 3.0190189 -0.96836555
0.10551761 3.0190189 -0.96836555
0.11456198 3.0190189 -0.96836555
0.12662113 3.0190189 -0.96836555
0.13566551 3.0190189 -0.96836555
0.14470987 3.0190189 -0.96836555
0.18390211 3.0190189 -0.96836555
0.26530141 3.0190189 -0.96836555
0.054266199 3.0211797 -0.96273643
0.066325352 3.0211797 -0.96273643
0.075369723 3.0211797 -0.96273643
0.084414087 3.0211797 -0.96273643
0.096473247 3.0211797 -0.96273643
0.10551761 3.0211797 -0.96273643
0.11456198 3.0211797 -0.96273643
0.12662113 3.0211797 -0.96273643
0.13566551 3.0211797 -0.96273643
0.14470987 3.0211797 -0.96273643
0.26831621 3.0211797 -0.96273643
0.0091267228 3.0519609 -0.96298254
0.015211205 3.0519609 -0.96298254
0.024337929 3.0519609 -0.96298254
0.035492811 3.0515976 -0.96392924
0.045633614 3.0508707 -0.9658227
-0.16579065 3.083307 -0.9632327
-0.15248646 3.0825737 -0.96514362
-0.14429927 3.083307 -0.9632327
-0.082895324 3.083307 -0.9632327
-0.07368473 3.0822067 -0.96609896
-0.064474143 3.0822067 -0.96609902
-0.055263549 3.0822067 -0.96609902
-0.046052955 3.0822067 -0.96609902
-0.036842365 3.082207 -0.96609902
-0.024561577 3.0822067 -0.96609896
-0.015350985 3.0822067 -0.96609902
-0.0061403941 3.082207 -0.96609902
0.0030701971 3.0822067 -0.96609902
-0.48339263 3.1152337 -0.96348745
-0.4740966 3.1152334 -0.96348739
-0.46789926 3.1152334 -0.96348739
-0.43071523 3.116344 -0.96059453
-0.4121232 3.116344 -0.96059453
-0.40592587 3.116344 -0.96059453
-0.39662984 3.116344 -0.96059453
-0.38423514 3.116344 -0.96059453
-0.37493914 3.116344 -0.96059453
-0.36564314 3.116344 -0.96059453
-0.35221556 3.1156037 -0.96252316
-0.34395245 3.1152334 -0.96348739
-0.33465642 3.1152337 -0.96348745
-0.32536042 3.1152334 -0.96348739
-0.31606442 3.1152337 -0.96348745
-0.30366972 3.1152334 -0.96348739
-0.29437372 3.1152334 -0.96348739
-0.28507769 3.1152337 -0.96348745
-0.27578169 3.1152334 -0.96348739
-0.26648569 3.1152334 -0.96348739
-0.25409099 3.1152337 -0.96348745
-0.24479498 3.1152334 -0.96348739
-0.23549896 3.1152334 -0.96348739
-0.2231043 3.1152337 -0.96348745
-0.21380827 3.1152334 -0.96348739
-0.20451225 3.1152334 -0.96348739
-0.19521625 3.1152334 -0.96348739
-0.18592024 3.1141231 -0.9663803
-0.13324283 3.1152334 -0.96348739
-0.12394683 3.1152337 -0.96348745
-0.11465082 3.1152334 -0.96348739
-0.1053548 3.1152334 -0.96348739
-0.096058793 3.1152334 -0.96348739
-0.62240767 3.1477571 -0.96374661
-0.61615229 3.1466362 -0.96666658
-0.60676926 3.1455154 -0.96958649
-0.59425855 3.146636 -0.96666652
-0.58487552 3.1466362 -0.96666658
-0.5754925 3.146636 -0.96666652
-0.56610948 3.1466362 -0.96666658
-0.55672646 3.146636 -0.96666652
-0.54421574 3.1466362 -0.96666658
-0.53483272 3.1466362 -0.96666658
-0.52544963 3.146636 -0.96666652
-0.51606667 3.1466362 -0.96666658
-0.50668359 3.1466362 -0.96666658
-0.4973006 3.1466362 -0.96666658
-0.46602383 3.1455154 -0.96958649
-0.45664078 3.1455154 -0.96958649
-0.44413006 3.1455154 -0.96958649
-0.42536402 3.1455154 -0.96958649
-0.62197435 3.1797633 -0.96695805
-0.61565989 3.1797633 -0.96695805
-0.60618818 3.1797633 -0.96695805
0.83372593 2.7178652 -0.95516181
-0.72452903 2.9065385 -0.95364356
-0.71870947 2.9065385 -0.95364356
-0.70416069 2.9065385 -0.95364356
-0.69543147 2.9054956 -0.9563601
-0.68670219 2.9065385 -0.95364356
-0.67506313 2.9065385 -0.95364356
-0.66342413 2.9065385 -0.95364356
-0.65469486 2.9065385 -0.95364356
-0.64596564 2.9065385 -0.95364356
-0.719154 2.9341812 -0.95654237
-0.64283562 2.9341812 -0.95654237
-0.63402969 2.9341812 -0.95654231
-0.62522364 2.9341812 -0.95654237
-0.62484324 2.9633751 -0.95672762
-0.61892056 2.9654975 -0.95119834
-0.60707521 2.9644363 -0.95396298
-0.57450044 2.9633751 -0.95672762
-0.61848021 2.9930902 -0.95691597
-0.60652888 2.9941609 -0.95412654
0.155367 2.9930902 -0.95691597
0.1643305 2.9930902 -0.95691597
0.17329398 2.9930902 -0.95691597
0.18624122 2.9934471 -0.9559862
0.19420876 2.9930902 -0.95691597
0.20317224 2.9930902 -0.95691597
0.21512356 2.9930902 -0.95691597
0.22408703 2.9930902 -0.95691597
0.23305053 2.9930902 -0.95691597
0.24500182 2.9930902 -0.95691597
0.25595719 2.9934471 -0.9559862
0.27488011 2.9930902 -0.95691597
0.28683141 2.9930902 -0.95691597
0.29579487 2.9930902 -0.95691597
0.30475837 2.9930902 -0.95691597
0.31670967 2.9930902 -0.95691597
0.32567316 2.9930902 -0.95691597
0.33463663 2.9930902 -0.95691597
0.34658796 2.9930902 -0.95691597
0.35555142 2.9930902 -0.95691597
0.36451489 2.9930902 -0.95691597
0.37646621 2.9930902 -0.95691597
0.38542971 2.9930902 -0.95691597
0.39439318 2.9930902 -0.95691597
0.40634447 2.9930902 -0.95691597
0.41530797 2.9930902 -0.95691597
0.42427146 2.9930902 -0.95691597
0.43622276 2.9930902 -0.95691597
0.44518623 2.9930902 -0.95691597
0.039192256 3.0255013 -0.95147824
0.045221832 3.0255013 -0.95147824
0.054266199 3.0244207 -0.95429277
0.066325352 3.0244207 -0.95429277
0.075369723 3.0244207 -0.95429277
0.084414087 3.0244207 -0.95429277
0.096473239 3.0244207 -0.95429277
0.10551761 3.0244207 -0.95429277
0.11456198 3.0244207 -0.95429277
0.12662113 3.0244207 -0.95429277
0.13566551 3.0244207 -0.95429277
0.14470987 3.0244207 -0.95429277
0.18591197 3.024781 -0.9533546
0.19596128 3.0255013 -0.95147824
0.20199086 3.0244207 -0.95429277
0.38287818 3.0255013 -0.95147824
0.0091267228 3.0552316 -0.95446199
0.015211205 3.0552316 -0.95446199
0.024337929 3.0552316 -0.95446199
-0.18421182 3.0877082 -0.95176762
-0.17500123 3.0866079 -0.95463389
-0.16579065 3.0855076 -0.95750016
-0.15248646 3.086241 -0.95558929
-0.14429927 3.0866079 -0.95463389
-0.13815887 3.0866079 -0.95463389
-0.085965522 3.0866079 -0.95463389
-0.07368473 3.0866079 -0.95463389
-0.064474143 3.0866079 -0.95463389
-0.055263549 3.0866079 -0.95463389
-0.046052955 3.0866079 -0.95463389
-0.035818964 3.086241 -0.95558929
-0.024561577 3.0866079 -0.95463389
-0.015350985 3.0866079 -0.95463389
-0.0092105912 3.0855076 -0.95750016
0.0030701971 3.0866079 -0.95463389
-0.48339263 3.1185651 -0.95480883
-0.4740966 3.1185651 -0.95480883
-0.4648006 3.1185651 -0.95480883
-0.4555046 3.1185651 -0.95480883
-0.44620857 3.1185651 -0.95480883
-0.4338139 3.1185651 -0.95480883
-0.42451787 3.1185651 -0.95480883
-0.41522187 3.1185651 -0.95480883
-0.40592587 3.1185651 -0.95480883
-0.39662984 3.1185651 -0.95480883
-0.38423514 3.1185651 -0.95480883
-0.37493914 3.1185651 -0.95480883
-0.36564314 3.1185651 -0.95480883
-0.35324845 3.1185651 -0.95480883
-0.34395245 3.1185651 -0.95480883
-0.33465642 3.1185651 -0.95480883
-0.32536042 3.1185651 -0.95480883
-0.31606442 3.1185651 -0.95480883
-0.30366972 3.1185651 -0.95480883
-0.29437372 3.1185651 -0.95480883
-0.28507769 3.1185651 -0.95480883
-0.27578169 3.1185651 -0.95480883
-0.26648569 3.1185651 -0.95480883
-0.25409099 3.1185651 -0.95480883
-0.24479498 3.1185651 -0.95480883
-0.23549896 3.1185651 -0.95480883
-0.2231043 3.1185651 -0.95480883
-0.21380827 3.1185651 -0.95480883
-0.20451227 3.1185651 -0.95480883
-0.19521625 3.1185651 -0.95480883
-0.13324283 3.1185651 -0.95480883
-0.12084816 3.1185651 -0.95480883
-0.11465082 3.1185651 -0.95480883
-0.1053548 3.1185651 -0.95480883
0.33775511 3.1185651 -0.95480883
0.34395245 3.1185651 -0.95480883
0.35324845 3.1185651 -0.95480883
0.36254448 3.1185651 -0.95480883
-0.62240767 3.1499989 -0.95790672
-0.59113091 3.1499989 -0.95790672
-0.58487552 3.1499989 -0.95790672
-0.5754925 3.1499989 -0.95790672
-0.56610948 3.1499989 -0.95790672
-0.55672646 3.1499989 -0.95790672
-0.54421574 3.1499989 -0.95790672
-0.53483272 3.1499989 -0.95790672
-0.52544963 3.1499989 -0.95790672
-0.51606667 3.1499989 -0.95790672
-0.50668359 3.1499989 -0.95790672
-0.4973006 3.1499989 -0.95790672
-0.61615229 3.1522405 -0.95206684
-0.60676926 3.1522405 -0.95206684
-0.59425855 3.1522405 -0.95206684
-0.58487552 3.1522405 -0.95206684
-0.5754925 3.1522405 -0.95206684
-0.56610948 3.1522405 -0.95206684
-0.55672646 3.1522405 -0.95206684
-0.54421574 3.1522405 -0.95206684
-0.53483272 3.1522405 -0.95206684
-0.52544963 3.1522405 -0.95206684
-0.51606667 3.1522405 -0.95206684
-0.50668359 3.1522405 -0.95206684
-0.4973006 3.1522405 -0.95206684
0.83372593 2.7217968 -0.9449203
-0.68942618 2.8824735 -0.94271553
-0.72452903 2.9096668 -0.94549412
-0.71870947 2.9096668 -0.94549412
-0.70416069 2.9096668 -0.94549412
-0.69543147 2.9096668 -0.94549412
-0.68670219 2.9096668 -0.94549412
-0.67506313 2.9096668 -0.94549412
-0.66342413 2.9096668 -0.94549412
-0.65469486 2.9096668 -0.94549412
-0.64596558 2.9096668 -0.94549412
-0.72452903 2.9117522 -0.94006115
-0.71870947 2.9117522 -0.94006115
-0.70416069 2.9117522 -0.94006115
-0.69543147 2.9117522 -0.94006115
-0.68670219 2.9117522 -0.94006115
-0.67506313 2.9117522 -0.94006115
-0.66342413 2.9117522 -0.94006115
-0.65469486 2.9117522 -0.94006115
-0.64596558 2.9117522 -0.94006115
-0.719154 2.9373369 -0.94832122
-0.64283562 2.9373369 -0.94832122
-0.6350081 2.9380381 -0.94649434
-0.62522364 2.9373369 -0.94832122
-0.619353 2.939441 -0.94284058
-0.60707521 2.9676201 -0.94566905
-0.60055327 2.9963024 -0.94854784
0.15536702 2.9973731 -0.94575846
0.1643305 2.9973731 -0.94575846
0.17329398 2.9973731 -0.94575846
0.18823311 2.9963024 -0.94854784
0.19420876 2.9963024 -0.94854784
0.20616007 2.9973731 -0.94575846
0.21512356 2.9973731 -0.94575846
0.22408703 2.9973731 -0.94575846
0.23305053 2.9973731 -0.94575846
0.24500182 2.9973731 -0.94575846
0.25695312 2.9973731 -0.94575846
0.26591662 2.9973731 -0.94575846
0.27488011 2.9973731 -0.94575846
0.28683141 2.9973731 -0.94575846
0.29579487 2.9973731 -0.94575846
0.30475837 2.9973731 -0.94575846
0.31670967 2.9973731 -0.94575846
0.32567316 2.9973731 -0.94575846
0.33463663 2.9973731 -0.94575846
0.34658796 2.9973731 -0.94575846
0.35555142 2.9973731 -0.94575846
0.36451489 2.9973731 -0.94575846
0.37547028 2.9970162 -0.94668823
0.38542971 2.9973731 -0.94575846
0.39439321 2.9973731 -0.94575846
0.40634447 2.9973731 -0.94575846
0.41530797 2.9973731 -0.94575846
0.42427146 2.9973731 -0.94575846
0.43622279 2.9973731 -0.94575846
0.44518623 2.9973731 -0.94575846
0.036177464 3.0287426 -0.94303459
0.045221832 3.0287423 -0.94303465
0.053261269 3.0291026 -0.94209641
0.066325352 3.0287423 -0.94303465
0.075369723 3.0287423 -0.94303465
0.084414087 3.0287423 -0.94303465
0.096473239 3.0287426 -0.94303459
0.10551761 3.0287423 -0.94303465
0.11556691 3.0283823 -0.94397283
0.12662113 3.0287426 -0.94303459
0.13566551 3.0287423 -0.94303465
0.1457148 3.0283823 -0.94397283
0.15375423 3.0298228 -0.94022006
0.16581339 3.0298228 -0.94022006
0.17787254 3.0298228 -0.94022006
0.18591197 3.0291023 -0.94209647
0.19596128 3.0298228 -0.94022006
0.20500565 3.0298228 -0.94022006
0.21405001 3.0298228 -0.94022006
0.22309437 3.0298228 -0.94022006
0.23515353 3.0298228 -0.94022006
0.24419791 3.0298228 -0.94022006
0.25022748 3.0298228 -0.94022006
0.28339016 3.0298228 -0.94022006
0.29243451 3.0287423 -0.94303465
0.30449367 3.0287423 -0.94303465
0.31052324 3.0298228 -0.94022006
0.35875988 3.0298228 -0.94022006
0.36478946 3.0298228 -0.94022006
0.37383384 3.0298228 -0.94022006
0.38589299 3.027662 -0.94584918
0.39493734 3.027662 -0.94584918
0.40398169 3.027662 -0.94584918
0.41604084 3.027662 -0.94584918
0.42508522 3.027662 -0.94584918
0.4341296 3.0298228 -0.94022006
0.44618875 3.0298228 -0.94022006
-0.16428101 3.0595925 -0.94310129
-0.15515429 3.0595925 -0.94310129
-0.039549135 3.0595925 -0.94310129
-0.0050704018 3.0588655 -0.94499475
0.0091267228 3.0585022 -0.94594145
0.015211205 3.0574121 -0.94878161
0.024337929 3.0585024 -0.94594145
0.11256292 3.0585022 -0.94594145
0.19470343 3.0595925 -0.94310129
0.36811116 3.0595925 -0.94310129
0.37419567 3.0595925 -0.94310129
0.38433644 3.0588658 -0.94499475
0.39549136 3.0585024 -0.94594145
0.40461805 3.0585022 -0.94594145
0.41374481 3.0585022 -0.94594145
0.42591375 3.0585022 -0.94594145
0.43504047 3.0595925 -0.94310129
0.4441672 3.0595925 -0.94310129
-0.18421182 3.0899086 -0.94603503
-0.14429927 3.0899086 -0.94603503
-0.13815887 3.0899086 -0.94603503
-0.12587808 3.0899086 -0.94603503
-0.095176108 3.0899086 -0.94603503
-0.085965522 3.0899086 -0.94603503
-0.076754928 3.0899086 -0.94603503
-0.058333743 3.0899086 -0.94603503
0.37456405 3.0899086 -0.94603503
0.38684481 3.0899086 -0.94603503
0.39605543 3.0899086 -0.94603503
0.40526602 3.0899086 -0.94603503
0.4144766 3.0899086 -0.94603503
0.42368722 3.0899086 -0.94603503
0.43596798 3.0899086 -0.94603503
-0.18114163 3.0921092 -0.94030249
-0.17500123 3.0921092 -0.94030249
-0.16886084 3.0921092 -0.94030249
-0.15350986 3.0921092 -0.94030249
-0.14429927 3.0921092 -0.94030249
-0.095176108 3.0921092 -0.94030249
-0.08903572 3.0921092 -0.94030249
-0.07368473 3.0921092 -0.94030249
-0.064474143 3.0921092 -0.94030249
-0.058333743 3.0921092 -0.94030249
-0.046052955 3.0921092 -0.94030249
0.16886084 3.0921092 -0.94030249
0.17500123 3.0921092 -0.94030249
0.18421182 3.0921092 -0.94030249
0.19649261 3.0921092 -0.94030249
0.20570321 3.0921092 -0.94030249
0.21184359 3.0921092 -0.94030249
0.31316012 3.0921092 -0.94030249
0.32237071 3.0921092 -0.94030249
0.36535347 3.0921092 -0.94030249
0.37456405 3.0921092 -0.94030249
0.38684481 3.0921092 -0.94030249
0.39605543 3.0921092 -0.94030249
0.40526602 3.0921092 -0.94030249
0.4144766 3.0921092 -0.94030249
0.42368722 3.0921092 -0.94030249
0.43596798 3.0921092 -0.94030249
-0.48339263 3.1218963 -0.94613028
-0.4740966 3.1218963 -0.94613028
-0.4648006 3.1218963 -0.94613028
-0.4555046 3.1218963 -0.94613028
-0.44620857 3.1218963 -0.94613028
-0.4338139 3.1218963 -0.94613028
-0.42451787 3.1218963 -0.94613028
-0.41522187 3.1218963 -0.94613028
-0.40592587 3.1218963 -0.94613028
-0.39662984 3.1218963 -0.94613028
-0.38423514 3.1218963 -0.94613028
-0.37493914 3.1218963 -0.94613028
-0.36564314 3.1218963 -0.94613028
-0.35324845 3.1218963 -0.94613028
-0.34395245 3.1218963 -0.94613028
-0.33465642 3.1218963 -0.94613028
-0.32536042 3.1218963 -0.94613028
-0.31606442 3.1218963 -0.94613028
-0.30366972 3.1218963 -0.94613028
-0.29437372 3.1218963 -0.94613028
-0.28507769 3.1218963 -0.94613028
-0.27578169 3.1218963 -0.94613028
-0.26648569 3.1218963 -0.94613028
-0.25409099 3.1218963 -0.94613028
-0.24479498 3.1218963 -0.94613028
-0.23549896 3.1218963 -0.94613028
-0.2231043 3.1218963 -0.94613028
-0.21380827 3.1218963 -0.94613028
-0.20451227 3.1218963 -0.94613028
-0.19521625 3.1218963 -0.94613028
-0.18695313 3.1222665 -0.94516593
-0.17662422 3.1230068 -0.94323742
-0.15493354 3.1230068 -0.94323742
-0.13634151 3.1218963 -0.94613028
-0.12394682 3.1218963 -0.94613028
-0.11465082 3.1218963 -0.94613028
-0.1053548 3.1218963 -0.94613028
-0.096058793 3.1230068 -0.94323742
-0.089861453 3.1230068 -0.94323742
0.33465642 3.1218963 -0.94613028
0.34395245 3.120786 -0.94902313
0.35324845 3.1218963 -0.94613028
0.36254448 3.1218963 -0.94613028
0.40592587 3.1230068 -0.94323742
0.41522187 3.1230068 -0.94323742
0.42451787 3.1230068 -0.94323742
0.4338139 3.1230068 -0.94323742
-0.61615229 3.1544824 -0.94622695
-0.60572672 3.1552296 -0.94428033
-0.59425855 3.1556029 -0.94330704
-0.58487552 3.1556032 -0.94330704
-0.5754925 3.1556032 -0.94330704
-0.56610948 3.1556032 -0.94330704
-0.55672646 3.1556032 -0.94330704
-0.54525828 3.1552296 -0.94428033
-0.53483272 3.1544824 -0.94622695
-0.52440709 3.1552296 -0.94428033
-0.51606667 3.1556032 -0.94330704
-0.50668359 3.1556032 -0.94330704
-0.49521551 3.1559765 -0.9423337
-0.38470423 3.156724 -0.94038713
-0.37427863 3.1559765 -0.9423337
-0.36593816 3.1556032 -0.94330704
-0.35655516 3.1556032 -0.94330704
-0.34508696 3.1559765 -0.9423337
-0.33466139 3.156724 -0.94038713
-0.32527837 3.1556029 -0.94330704
-0.31589535 3.1556032 -0.94330704
-0.30755487 3.1559765 -0.9423337
-0.29295903 3.1559765 -0.9423337
-0.28461859 3.1556032 -0.94330704
-0.24708645 3.156724 -0.94038713
-0.23457575 3.156724 -0.94038713
-0.22519273 3.156724 -0.94038713
-0.20329899 3.156724 -0.94038713
-0.15638384 3.156724 -0.94038713
-0.14387313 3.156724 -0.94038713
-0.1344901 3.156724 -0.94038713
-0.12510706 3.156724 -0.94038713
-0.11572403 3.156724 -0.94038713
-0.106341 3.156724 -0.94038713
-0.51462853 3.1888151 -0.94337779
-0.50515687 3.1888151 -0.94337779
-0.33150917 3.1888151 -0.94337779
-0.32519472 3.1888151 -0.94337779
-0.51635015 3.2238014 -0.94047397
-0.50678807 3.2238014 -0.94047397
-0.38566893 3.2238014 -0.94047397
-0.37610686 3.2238014 -0.94047397
-0.33467138 3.2226591 -0.94344962
-0.32617179 3.2222786 -0.9444415
-0.31554729 3.2238014 -0.94047397
0.83372593 2.725728 -0.93467891
-0.72452903 2.9138377 -0.93462813
-0.71579969 2.9138377 -0.93462813
-0.70416069 2.9138377 -0.93462813
-0.69543147 2.9138377 -0.93462813
-0.68670219 2.9138377 -0.93462813
-0.67506313 2.9138377 -0.93462813
-0.66342413 2.9138377 -0.93462813
-0.65469486 2.9138377 -0.93462813
-0.64596558 2.9138377 -0.93462813
-0.63723636 2.9138377 -0.93462813
-0.62559736 2.9138377 -0.93462813
-0.6197778 2.9138377 -0.93462813
-0.61543924 2.9429474 -0.93370599
-0.60467637 2.9436486 -0.9318791
-0.60707521 2.9718649 -0.93461043
0.056768715 3.0005853 -0.93739033
0.14042787 3.0027268 -0.93181157
0.15636295 3.0012991 -0.93553072
0.1643305 3.0005853 -0.93739033
0.17229803 3.0012991 -0.93553072
0.18823311 3.0005853 -0.93739033
0.19420876 3.0005853 -0.93739033
0.20317224 3.0005853 -0.93739033
0.21512356 3.0005853 -0.93739033
0.22408703 3.0005853 -0.93739033
0.23305053 3.0005853 -0.93739033
0.24500182 3.0005853 -0.93739033
0.25695312 3.0016561 -0.93460095
0.26591662 3.0016561 -0.93460095
0.27388415 3.0012991 -0.93553072
0.28384358 3.0005853 -0.93739033
0.29579487 3.0016561 -0.93460095
0.3077462 3.0005853 -0.93739033
0.31670967 3.0016561 -0.93460095
0.32567316 3.0016561 -0.93460095
0.33463663 3.0016561 -0.93460095
0.34658796 3.0016561 -0.93460095
0.35555142 3.0005853 -0.93739033
0.36451492 3.0005853 -0.93739033
0.37347838 3.0005853 -0.93739033
0.42725927 3.0005853 -0.93739033
0.43622276 3.0005853 -0.93739033
0.44518623 3.0005853 -0.93739033
0.015073944 3.0319836 -0.93459094
0.036177464 3.0319836 -0.93459094
0.045221832 3.0319836 -0.93459094
0.054266199 3.0319836 -0.93459094
0.066325352 3.0319836 -0.93459094
0.075369723 3.0319836 -0.93459094
0.084414087 3.0319836 -0.93459094
0.096473247 3.0319836 -0.93459094
0.10551761 3.0319836 -0.93459094
0.11757676 3.0319836 -0.93459094
0.12662113 3.0319836 -0.93459094
0.13566551 3.0319836 -0.93459094
0.14772466 3.0319836 -0.93459094
0.15676902 3.0319836 -0.93459094
0.16581339 3.0319836 -0.93459094
0.17485775 3.0319836 -0.93459094
0.18390211 3.0319836 -0.93459094
0.20500565 3.0319836 -0.93459094
0.21405001 3.0319836 -0.93459094
0.22309437 3.0319836 -0.93459094
0.23515353 3.0319836 -0.93459094
0.24419791 3.0319836 -0.93459094
0.25324225 3.0319836 -0.93459094
0.26228663 3.0319836 -0.93459094
0.28339016 3.0319836 -0.93459094
0.29544932 3.0319836 -0.93459094
0.30449367 3.0319836 -0.93459094
0.31353801 3.0319836 -0.93459094
0.32258239 3.0319836 -0.93459094
0.34670073 3.0319836 -0.93459094
0.35574508 3.0319836 -0.93459094
-0.17340773 3.0617731 -0.9374209
-0.16326694 3.0625 -0.9355275
-0.15515429 3.0617731 -0.9374209
-0.14906982 3.0617731 -0.9374209
-0.082140505 3.0639534 -0.93174058
-0.066929303 3.0617731 -0.9374209
-0.051718097 3.0628633 -0.93458074
-0.045633614 3.0617731 -0.9374209
-0.036506891 3.0628633 -0.93458074
-0.024337929 3.0628633 -0.93458074
-0.015211205 3.0628633 -0.93458074
-0.0060844822 3.0628633 -0.93458074
0.0060844822 3.0628633 -0.93458074
0.015211205 3.0639534 -0.93174058
0.024337929 3.0628633 -0.93458074
0.035492811 3.0632267 -0.93363404
0.045633614 3.0628633 -0.93458074
0.054760337 3.0639534 -0.93174058
0.066929303 3.0639534 -0.93174058
0.076056026 3.0639534 -0.93174058
0.088224992 3.0639534 -0.93174058
0.094309472 3.0639534 -0.93174058
0.1034362 3.0639534 -0.93174058
0.11256292 3.0628633 -0.93458074
0.12473188 3.0639534 -0.93174058
0.13284452 3.0632267 -0.93363404
0.14906982 3.0639534 -0.93174058
0.15515429 3.0639534 -0.93174058
0.16428101 3.0628633 -0.93458074
0.17644998 3.0617731 -0.9374209
0.18557671 3.0617731 -0.9374209
0.19470343 3.0617731 -0.9374209
0.2068724 3.0617731 -0.9374209
0.21599911 3.0628633 -0.93458074
