# .PCD v0.7 - Point Cloud Data file format
VERSION 0.7
FIELDS x y z
SIZE 4 4 4
TYPE F F F
COUNT 1 1 1
WIDTH 1464
HEIGHT 1
VIEWPOINT 0 0 0 1 0 0 0
POINTS 1464
DATA ascii
0.68333197 1.746186 -0.86218703
0.825279 2.6771386 -0.86806059
0.75819582 2.7039256 -0.8616395
0.76629043 2.7039256 -0.8616395
0.77708328 2.7029586 -0.86415851
0.78517789 2.7039256 -0.8616395
0.7932725 2.7029586 -0.86415851
0.80406529 2.7029586 -0.86415851
0.81485814 2.7029586 -0.86415851
0.82475156 2.7032807 -0.86331886
0.70996761 2.7278986 -0.8635785
0.71540803 2.7269239 -0.86611795
0.72447532 2.7272489 -0.86527151
0.7335425 2.726599 -0.86696452
0.74532998 2.725949 -0.86865747
0.75621074 2.725949 -0.86865747
0.81333458 2.7278986 -0.8635785
0.63900703 2.7542303 -0.86042839
0.64723456 2.7532473 -0.86298871
0.65546215 2.7532473 -0.86298871
0.66277552 2.7529199 -0.86384219
0.675574 2.7529194 -0.86384219
0.68562984 2.7532473 -0.86298871
0.69659996 2.7532473 -0.86298871
0.70482749 2.7532473 -0.86298871
0.71031255 2.7542303 -0.86042839
0.63692355 2.7783546 -0.86410999
0.63265109 2.8318503 -0.86115861
0.63235062 2.8579235 -0.86317456
0.68480623 3.1529894 -0.86513025
0.69410223 3.1518788 -0.8680231
0.6849612 3.1858664 -0.86446869
0.69121653 3.1858664 -0.86446869
0.60618818 3.2182326 -0.86674201
0.61565989 3.2182326 -0.86674201
0.62513161 3.2182326 -0.86674201
0.63460326 3.2182326 -0.86674201
0.64407492 3.2182326 -0.86674201
0.65670383 3.2182326 -0.86674201
0.66617554 3.2182326 -0.86674201
0.67564726 3.2182326 -0.86674201
0.68511891 3.2182326 -0.86674201
0.69459057 3.2182326 -0.86674201
0.70406234 3.2182326 -0.86674201
0.7103768 3.2182326 -0.86674201
0.60618818 3.2204957 -0.860847
0.61565989 3.2204957 -0.860847
0.62513161 3.2204957 -0.860847
0.63460326 3.2204957 -0.860847
0.64407492 3.2204957 -0.860847
0.65670383 3.2204957 -0.860847
0.66617554 3.2204957 -0.860847
0.67564726 3.2204957 -0.860847
0.68511891 3.2204957 -0.860847
0.69459057 3.2204957 -0.860847
0.70406234 3.2204957 -0.860847
0.7103768 3.2204957 -0.860847
0.60453337 3.2527382 -0.86509103
0.70983166 1.6939473 -0.85235924
0.7158218 1.693518 -0.85347772
0.72348917 1.6934322 -0.85370141
0.69832331 1.7041045 -0.8544513
0.70428568 1.7041693 -0.85428256
0.71006739 1.7031333 -0.85698146
0.68591076 1.7148372 -0.85535461
0.69577247 1.7146512 -0.85583907
0.68351251 1.7254719 -0.85682774
0.68415743 1.7382073 -0.85314846
0.68333197 1.7475097 -0.85873866
0.68517882 1.7501571 -0.85184193
0.825279 2.6809757 -0.85806543
0.73391193 2.7068262 -0.85408247
0.74470484 2.7068264 -0.85408247
0.75549757 2.7068264 -0.85408247
0.76629043 2.7068264 -0.85408247
0.77708328 2.7068264 -0.85408247
0.78517789 2.7068262 -0.85408247
0.7932725 2.7068262 -0.85408247
0.80316591 2.7071486 -0.85324281
0.81485814 2.7068264 -0.85408247
0.82475156 2.7065041 -0.85492212
0.70724744 2.7298484 -0.85849947
0.71540803 2.7298484 -0.85849947
0.72356856 2.7298484 -0.85849947
0.73172909 2.7298484 -0.85849947
0.66372454 2.7317979 -0.85342044
0.70996761 2.7317979 -0.85342044
0.71540803 2.7317979 -0.85342044
0.72356856 2.7317979 -0.85342044
0.63717866 2.7575064 -0.8518939
0.64814872 2.7568512 -0.85360074
0.65546215 2.7561958 -0.85530764
0.66094714 2.7561958 -0.85530764
0.67740232 2.7561958 -0.85530764
0.68562984 2.7561958 -0.85530764
0.69751412 2.7568512 -0.85360074
0.70482749 2.7561958 -0.85530764
0.71305501 2.7561958 -0.85530764
0.63323665 2.7819881 -0.8546443
0.63294637 2.8072112 -0.85657281
0.62702757 2.835881 -0.85065854
0.60934544 3.2227585 -0.85495198
0.61565989 3.2227585 -0.85495198
0.62513161 3.2227585 -0.85495198
0.63460326 3.2227585 -0.85495198
0.64407492 3.2227585 -0.85495198
0.65670383 3.2227585 -0.85495198
0.66617554 3.2227585 -0.85495198
0.67564726 3.2227585 -0.85495198
0.68511891 3.2227585 -0.85495198
0.60453337 3.2573073 -0.85318834
0.71674794 1.6861405 -0.84444904
0.69725239 1.6978114 -0.84229314
0.70668685 1.6966842 -0.84522909
0.71522284 1.6965233 -0.84564853
0.7246573 1.6966844 -0.84522915
0.7313962 1.6965234 -0.84564853
0.6874826 1.7083133 -0.8434872
0.69416773 1.7085721 -0.84281254
0.738976 1.7070184 -0.84686077
0.68668926 1.7182784 -0.84639001
0.68639058 1.7253659 -0.84543341
0.68680036 1.7309705 -0.84250343
0.68385142 1.7413888 -0.84486085
0.825279 2.6854517 -0.84640437
0.72581738 2.7097273 -0.84652555
0.73391199 2.7097273 -0.84652555
0.74470484 2.7097273 -0.84652555
0.75549757 2.7097273 -0.84652555
0.76898867 2.7097273 -0.84652555
0.77708328 2.7097273 -0.84652555
0.78517789 2.7097273 -0.84652555
0.7932725 2.7097273 -0.84652555
0.80406535 2.7097273 -0.84652555
0.81485814 2.7097273 -0.84652555
0.72581738 2.7116611 -0.84148753
0.73391199 2.7116611 -0.84148753
0.74470484 2.7116611 -0.84148753
0.75279939 2.7116611 -0.84148753
0.76898867 2.7116611 -0.84148753
0.77708328 2.7116611 -0.84148753
0.78517789 2.7116611 -0.84148753
0.7932725 2.7116611 -0.84148753
0.80406535 2.7116611 -0.84148753
0.81485814 2.7116611 -0.84148753
0.63924289 2.7356973 -0.84326243
0.65284383 2.7356973 -0.84326243
0.66372454 2.7347224 -0.84580195
0.67460525 2.7356973 -0.84326243
0.68548602 2.7356973 -0.84326243
0.6990869 2.7356973 -0.84326243
0.70724744 2.7356973 -0.84326243
0.71540803 2.7337477 -0.84834141
0.72266179 2.7343976 -0.8466484
0.63352197 2.7601271 -0.84506619
0.63323665 2.7859519 -0.84431803
0.62736976 2.811208 -0.84616035
0.63294637 2.811208 -0.84616035
0.6849612 3.1937122 -0.84402919
0.69434422 3.1925914 -0.8469491
0.70685494 3.1925914 -0.8469491
0.60724062 3.2257757 -0.84709185
0.61565989 3.2261529 -0.84610933
0.62513155 3.2261529 -0.84610927
0.63460326 3.2261529 -0.84610933
0.64407492 3.2261529 -0.84610927
0.65670383 3.2261529 -0.84610927
0.66617554 3.2261529 -0.84610933
0.67564726 3.2261529 -0.84610927
0.68511891 3.2250214 -0.84905684
0.69725239 1.6990994 -0.83893776
0.70623761 1.6990994 -0.83893776
0.71573114 1.6964879 -0.83632499
0.72420806 1.6990994 -0.83893776
0.73319328 1.6990994 -0.83893776
0.69725239 1.7010314 -0.83390474
0.70623755 1.7010313 -0.83390474
0.71522284 1.7010314 -0.83390474
0.72660404 1.7008168 -0.83446389
0.7349903 1.7010313 -0.83390474
0.68838596 1.7115507 -0.83505332
0.69380635 1.7115507 -0.83505332
0.68632591 1.7233565 -0.83316135
0.68680036 1.7322797 -0.83909285
0.75568789 2.6892884 -0.83640909
0.64487118 2.715529 -0.8314116
0.65296578 2.715529 -0.8314116
0.7078293 2.7148845 -0.83309096
0.71502453 2.715529 -0.8314116
0.7231192 2.7145619 -0.83393061
0.73391199 2.7145619 -0.83393055
0.74470478 2.7145619 -0.83393055
0.75549757 2.7145619 -0.83393055
0.76629043 2.7145622 -0.83393061
0.77708328 2.7145619 -0.83393055
0.78517789 2.7145619 -0.83393061
0.7932725 2.7145619 -0.83393055
0.80406535 2.7145622 -0.83393061
0.8139587 2.7142398 -0.8347702
0.82295275 2.7135952 -0.83644956
0.63652271 2.7386217 -0.83564389
0.64468324 2.7386217 -0.83564389
0.66644472 2.7376468 -0.8381834
0.67460525 2.7386217 -0.83564389
0.68548602 2.7376468 -0.8381834
0.69636673 2.7376468 -0.8381834
0.70452726 2.7376468 -0.8381834
0.63535029 2.7634032 -0.83653164
0.63323665 2.7889247 -0.83657336
0.63323665 2.7909067 -0.83141023
0.62365204 2.814872 -0.83661556
0.63294637 2.8152051 -0.8357479
0.68480623 3.1652045 -0.83330882
0.67870581 3.1970749 -0.83526933
0.60618818 3.2295473 -0.83726674
0.61565989 3.2295473 -0.83726674
0.62513161 3.2295473 -0.83726674
0.63460326 3.2295473 -0.83726674
0.64407492 3.2295473 -0.83726674
0.65670383 3.2295473 -0.83726674
0.66617554 3.2295473 -0.83726674
0.67249 3.2295473 -0.83726674
0.60618818 3.2318101 -0.83137167
0.61565989 3.2318101 -0.83137167
0.62513161 3.2318101 -0.83137167
0.63460326 3.2318101 -0.83137167
0.64407492 3.2318101 -0.83137167
0.65670383 3.2318101 -0.83137167
0.66617554 3.2318101 -0.83137167
0.67249 3.2318101 -0.83137167
0.70602351 1.6944677 -0.82275611
0.71585423 1.6941475 -0.82359052
0.72032273 1.692546 -0.82776219
0.69725245 1.7042514 -0.82551622
0.70264357 1.7042513 -0.82551628
0.71701986 1.7042513 -0.82551634
0.72523493 1.7044353 -0.825037
0.7349903 1.7042514 -0.82551628
0.68838596 1.7147883 -0.82661939
0.69380635 1.7147883 -0.82661945
0.74620318 1.7134932 -0.82999295
0.67760605 1.7254397 -0.82773429
0.68668926 1.7260907 -0.8260383
0.81368053 2.6937649 -0.82474804
0.82438684 2.6928058 -0.82724684
0.64487118 2.7174628 -0.82637358
0.65386516 2.7181075 -0.82469422
0.66106039 2.7174628 -0.82637358
0.67724967 2.7184298 -0.82385457
0.68534422 2.7184298 -0.82385457
0.69523764 2.7181075 -0.82469422
0.70423168 2.7174628 -0.82637358
0.74470484 2.7174628 -0.82637358
0.75549763 2.7184298 -0.82385457
0.76629043 2.7184298 -0.82385457
0.77708322 2.7184298 -0.82385457
0.78517789 2.7184298 -0.82385457
0.79057431 2.7193968 -0.82133561
0.63742942 2.7428463 -0.82463932
0.64468324 2.742521 -0.82548583
0.65284383 2.7425213 -0.82548583
0.66644472 2.742521 -0.82548583
0.67460525 2.7425213 -0.82548583
0.63352197 2.7670069 -0.82714367
0.62217575 2.7938795 -0.82366556
0.63323665 2.7938795 -0.82366556
0.63294637 2.8182027 -0.82793856
0.62736976 2.8202012 -0.82273233
0.63573468 2.8202012 -0.82273233
0.63802189 2.8741827 -0.82081759
0.68465394 3.1361196 -0.82565147
0.69079435 3.1361196 -0.82565147
0.67860889 3.1674254 -0.82752311
0.67557812 3.1993167 -0.82942951
0.67245048 3.2015584 -0.82358956
0.60618818 3.2340729 -0.82547665
0.61565989 3.2340729 -0.82547665
0.62513161 3.2340729 -0.82547665
0.63460326 3.2340729 -0.82547665
0.64407492 3.2340729 -0.82547665
0.65670383 3.2340729 -0.82547665
0.66617554 3.2340729 -0.82547665
0.70602363 1.6975102 -0.81482983
0.71496052 1.698311 -0.81274402
0.72151428 1.6985245 -0.81218785
0.69648224 1.7082995 -0.81497085
0.70444047 1.7081153 -0.81545019
0.7278021 1.7068274 -0.81880558
0.73543954 1.7079544 -0.81586963
0.74217844 1.7087593 -0.8137725
0.68838596 1.7180257 -0.81818545
0.6932041 1.7178098 -0.8187477
0.69591093 2.6976018 -0.81475282
0.70661724 2.6966426 -0.81725156
0.714647 2.6966424 -0.81725162
0.72267675 2.6966424 -0.81725162
0.73249084 2.6969624 -0.81641865
0.74141282 2.6976018 -0.81475282
0.78780681 2.6963227 -0.81808454
0.79494441 2.6966424 -0.81725162
0.8029741 2.6966424 -0.81725162
0.81368053 2.6966424 -0.81725162
0.82438678 2.6966424 -0.81725162
0.65566403 2.7222977 -0.81377864
0.66645682 2.7232645 -0.81125963
0.67724967 2.7222977 -0.81377864
0.68534422 2.7222977 -0.81377864
0.69343889 2.7222977 -0.81377864
0.70423168 2.7232645 -0.81125963
0.74380541 2.72262 -0.81293899
0.75549757 2.7222977 -0.81377864
0.76629043 2.7222977 -0.81377864
0.77618384 2.7219753 -0.81461829
0.78517789 2.7213306 -0.81629765
0.63652271 2.7464204 -0.81532782
0.64468324 2.7464204 -0.81532782
0.65284383 2.7454455 -0.81786734
0.66644472 2.7464204 -0.81532782
0.67732543 2.7464204 -0.81532782
0.63352197 2.7699554 -0.81946254
0.6362645 2.7719212 -0.81434184
0.63876706 2.7978435 -0.81333935
0.62458146 2.8221998 -0.8175261
0.63666409 2.8228657 -0.81579065
0.63640016 2.8486445 -0.81740814
0.67851359 3.1383202 -0.81991893
0.68465394 3.1383202 -0.81991893
0.67544341 3.1405206 -0.81418633
0.67241156 3.1729779 -0.81305879
0.64117372 3.2060418 -0.81190985
0.65993977 3.2060418 -0.81190985
0.66619515 3.204921 -0.81482983
0.67245048 3.204921 -0.81482983
0.60618818 3.2374675 -0.81663412
0.61565989 3.2374673 -0.81663406
0.62513161 3.2374673 -0.81663406
0.63460326 3.2374673 -0.81663406
0.64302254 3.2378445 -0.8156516
0.65775627 3.2370903 -0.81761664
0.70602363 1.7013305 -0.80487734
0.71496052 1.7015138 -0.80440062
0.72389752 1.7015136 -0.80440056
0.68647009 1.7119794 -0.8053841
0.69545537 1.7119794 -0.80538416
0.70551884 1.7117218 -0.80605519
0.73678732 1.7113354 -0.80706179
0.74217844 1.7119794 -0.8053841
0.69591093 2.6995201 -0.80975521
0.70661724 2.6995201 -0.80975521
0.714647 2.6995201 -0.80975521
0.72267675 2.6995201 -0.80975521
0.73070651 2.6995201 -0.80975521
0.74141282 2.6995201 -0.80975521
0.78691471 2.6995201 -0.80975521
0.79494441 2.6995201 -0.80975521
0.8029741 2.6995201 -0.80975521
0.81368053 2.6995201 -0.80975521
0.69323438 2.7014387 -0.8047576
0.70661724 2.7014387 -0.8047576
0.714647 2.7014387 -0.8047576
0.72267675 2.7014387 -0.8047576
0.73070651 2.7014387 -0.8047576
0.7762084 2.7014387 -0.8047576
0.78691471 2.7014387 -0.8047576
0.79494441 2.7014387 -0.8047576
0.8029741 2.7014387 -0.8047576
0.81368053 2.7014387 -0.8047576
0.64487118 2.7261653 -0.80370271
0.65296578 2.7261655 -0.80370271
0.66465801 2.7264874 -0.80286306
0.67545086 2.7264879 -0.80286306
0.68534422 2.7261653 -0.80370271
0.69343889 2.7261653 -0.80370271
0.70423168 2.7251985 -0.80622166
0.73391199 2.7251985 -0.80622166
0.74470478 2.7261653 -0.80370271
0.75549757 2.7261653 -0.80370271
0.76629043 2.7261653 -0.80370271
0.77618384 2.7258432 -0.80454236
0.63924289 2.7493448 -0.80770928
0.64468324 2.7493448 -0.80770928
0.64468324 2.7512944 -0.80263031
0.65284383 2.7512944 -0.80263031
0.66644472 2.7512944 -0.80263031
0.63900703 2.7748694 -0.80666077
0.6463204 2.775197 -0.80580729
0.63876706 2.8018074 -0.80301309
0.64429754 2.8018074 -0.80301309
0.63852298 2.8271959 -0.80451053
0.63546288 2.8530111 -0.80603313
0.67841977 3.1130142 -0.80393267
0.67544341 3.1438215 -0.80558753
0.67241156 3.1763091 -0.80438018
0.64742905 3.2082834 -0.80606997
0.65993977 3.2082834 -0.80606997
0.66619515 3.2082834 -0.80606997
0.63491833 3.2105253 -0.80023015
0.64430141 3.2105253 -0.80023015
0.65681207 3.2105253 -0.80023015
0.60618818 3.2408617 -0.80779147
0.61565989 3.2408617 -0.80779147
0.62407917 3.241616 -0.80582649
0.63460326 3.2408617 -0.80779147
0.64723217 3.2431247 -0.80189645
0.71529341 1.6958314 -0.79125577
0.72003442 1.6962562 -0.79014927
0.69887388 1.705357 -0.79438853
0.70602357 1.705357 -0.79438853
0.7140668 1.7050366 -0.79522288
0.72628069 1.7045029 -0.79661345
0.73283452 1.7047164 -0.79605722
0.68647021 1.7158433 -0.79531795
0.69545537 1.7158436 -0.79531801
0.70264351 1.7158434 -0.79531801
0.69501877 2.7046359 -0.7964282
0.70661724 2.7043161 -0.79726118
0.714647 2.7043161 -0.79726118
0.72178453 2.7046359 -0.7964282
0.73070651 2.7052753 -0.79476237
0.77710056 2.7046359 -0.7964282
0.78691471 2.7043161 -0.79726118
0.79494441 2.7043161 -0.79726118
0.8029741 2.7043161 -0.79726112
0.81368053 2.7043161 -0.79726118
0.65566403 2.7290664 -0.79614568
0.66645682 2.7290664 -0.79614568
0.67455149 2.7290664 -0.79614568
0.68534422 2.7290664 -0.79614568
0.69343889 2.7290664 -0.79614568
0.7420066 2.7290664 -0.79614568
0.75819582 2.7290664 -0.79614568
0.76629043 2.7290664 -0.79614568
0.77438504 2.7290664 -0.79614568
0.65566403 2.7310002 -0.79110771
0.66375864 2.7310002 -0.79110771
0.67455149 2.7310002 -0.79110771
0.68534422 2.7310002 -0.79110771
0.69343889 2.7310002 -0.79110771
0.7420066 2.7310002 -0.79110771
0.75819582 2.7310002 -0.79110771
0.76629043 2.7310002 -0.79110771
0.77438504 2.7310002 -0.79110771
0.64468324 2.7551937 -0.79247224
0.65193707 2.7538941 -0.7958582
0.64449203 2.778801 -0.79641926
0.63876706 2.8057714 -0.79268682
0.64429754 2.8047802 -0.79526842
0.62736976 2.8321922 -0.79149497
0.63573468 2.831193 -0.79409808
0.67524898 3.0551934 -0.79513204
0.67841977 3.1162851 -0.79541206
0.66623276 3.1493227 -0.79125619
0.67237318 3.1482224 -0.79412246
0.66621417 3.17853 -0.79859447
0.6631155 3.1807511 -0.79280877
0.59738624 3.2127669 -0.7943902
0.60676926 3.2127669 -0.7943902
0.62553537 3.2127669 -0.7943902
0.63491833 3.2127669 -0.7943902
0.64742905 3.2127669 -0.7943902
0.65681207 3.2127669 -0.7943902
0.66619515 3.2127669 -0.7943902
0.71470082 1.6981677 -0.78516996
0.72359014 1.6981677 -0.7851699
0.73247945 1.6981676 -0.7851699
0.74136877 1.6988047 -0.78351015
0.69887388 1.7085598 -0.78604513
0.70602351 1.7085596 -0.78604513
0.71489322 1.7065997 -0.78416431
0.72359014 1.700079 -0.78019065
0.73247945 1.700079 -0.78019059
0.68647015 1.7190635 -0.78692955
0.69594371 1.7178373 -0.78608805
0.70602351 1.7104813 -0.78103906
0.71496052 1.7104813 -0.78103906
0.72032273 1.7104813 -0.78103906
0.68647015 1.7209954 -0.78189653
0.69545537 1.7209954 -0.78189653
0.69591099 2.7081528 -0.78726602
0.70661724 2.708153 -0.78726596
0.714647 2.708153 -0.78726596
0.72267675 2.708153 -0.78726596
0.73070651 2.708153 -0.78726596
0.74408942 2.7081528 -0.78726602
0.7762084 2.7081528 -0.78726602
0.78691471 2.7081528 -0.78726602
0.79494441 2.708153 -0.78726596
0.8029741 2.708153 -0.78726596
0.81368053 2.708153 -0.78726596
0.64487118 2.734868 -0.78103173
0.65296578 2.733901 -0.78355074
0.66375864 2.733901 -0.78355074
0.67455149 2.733901 -0.78355074
0.68534428 2.733901 -0.78355074
0.69343889 2.733901 -0.78355074
0.70603055 2.7335787 -0.78439045
0.71502453 2.733901 -0.78355074
0.72581738 2.733901 -0.78355074
0.7420066 2.733901 -0.78355074
0.77438504 2.732934 -0.78606975
0.64468324 2.7581182 -0.7848537
0.63900703 2.783715 -0.7836175
0.64449203 2.7827322 -0.78617787
0.63600183 2.8087442 -0.78494215
0.62736976 2.8341906 -0.78628874
0.67524898 3.0584054 -0.78676391
0.6783275 3.0881648 -0.78823447
0.68435705 3.0881648 -0.78823447
0.67229789 3.0903256 -0.78260541
0.67233527 3.1184657 -0.78973174
0.67233527 3.120646 -0.78405142
0.66623276 3.1515234 -0.78552365
0.67237318 3.1515234 -0.78552365
0.66414839 3.1844528 -0.78316593
0.60676926 3.2161298 -0.78563046
0.61615229 3.2161295 -0.7856304
0.62553537 3.2161295 -0.7856304
0.63491833 3.2161295 -0.7856304
0.64430141 3.2161298 -0.78563046
0.65681207 3.2161295 -0.7856304
0.66619515 3.2172503 -0.78271043
0.72359014 1.7026274 -0.77355152
0.73283499 1.7021177 -0.77487928
0.69798017 1.7133638 -0.77353001
0.70602357 1.7130435 -0.77436441
0.71496052 1.7130437 -0.77436441
0.72032279 1.7130436 -0.77436429
0.73819667 1.7130436 -0.77436429
0.74320138 1.7130436 -0.77436435
0.68736869 1.7232494 -0.77602458
0.6944285 1.7233876 -0.77566516
0.79924494 2.6894748 -0.77356964
0.69323438 2.7119899 -0.77727079
0.70394069 2.712949 -0.77477199
0.714647 2.7119899 -0.77727079
0.7253533 2.7119899 -0.77727079
0.73070651 2.7119899 -0.77727079
0.74408937 2.7119896 -0.77727079
0.75479567 2.7119896 -0.77727079
0.76460981 2.7123096 -0.77643782
0.77620834 2.7119896 -0.77727079
0.78691471 2.7119896 -0.77727079
0.79494441 2.7119899 -0.77727079
0.80029756 2.7119899 -0.77727079
0.81368047 2.7119896 -0.77727079
0.64487118 2.7377687 -0.77347481
0.65206641 2.7374465 -0.77431446
0.66375864 2.7368019 -0.77599376
0.67545086 2.7374465 -0.77431446
0.68534422 2.7368019 -0.77599376
0.69343889 2.7368019 -0.77599376
0.64468324 2.7620177 -0.77469563
0.6501236 2.7629924 -0.77215612
0.63900703 2.7866635 -0.77593637
0.64449203 2.7866635 -0.77593637
0.62770617 2.811717 -0.77719748
0.63600183 2.811717 -0.77719748
0.63573468 2.8381877 -0.77587628
0.63294637 2.8401861 -0.77067006
0.67226112 3.0626884 -0.77560645
0.67229789 3.0935669 -0.7741617
0.67233527 3.1239169 -0.77553082
0.66623276 3.154824 -0.77692485
0.67237318 3.154824 -0.77692485
0.66621417 3.1874137 -0.77545166
0.60676926 3.2194922 -0.77687061
0.61615229 3.2194922 -0.77687061
0.62553537 3.2194922 -0.77687061
0.64117372 3.2194922 -0.77687061
0.65681207 3.2194922 -0.77687061
0.66619515 3.2194922 -0.77687061
0.61615229 3.2217338 -0.77103078
0.70758939 1.7070874 -0.76193303
0.71470076 1.7070875 -0.76193309
0.72314572 1.7064503 -0.76359284
0.73354614 1.7067051 -0.7629289
0.74136877 1.7070874 -0.76193309
0.69708651 1.7168866 -0.76435226
0.70423609 1.7168866 -0.76435226
0.73819673 1.7162462 -0.76602089
0.69365835 1.7274356 -0.76511973
0.79924494 2.6923296 -0.76613283
0.80986613 2.6932812 -0.76365387
0.81517673 2.6923296 -0.76613283
0.82048732 2.6932812 -0.76365387
0.65308565 2.7167857 -0.76477677
0.66379201 2.7167857 -0.76477677
0.67717487 2.7167857 -0.76477677
0.68520463 2.7167857 -0.76477677
0.69591093 2.7158265 -0.76727557
0.70661724 2.7158265 -0.76727557
0.714647 2.7158265 -0.76727557
0.72267675 2.7158265 -0.76727557
0.73338306 2.7158265 -0.76727557
0.74408942 2.7158265 -0.76727557
0.75479573 2.7158265 -0.76727557
0.76550198 2.7158265 -0.76727557
0.7762084 2.7158265 -0.76727557
0.78691471 2.7158265 -0.76727557
0.79494441 2.7158265 -0.76727557
0.80029756 2.7158265 -0.76727557
0.81100392 2.7148674 -0.76977438
0.6502676 2.7416368 -0.76339877
0.67724967 2.7426035 -0.76087981
0.63924289 2.7668917 -0.76199818
0.64468324 2.7659168 -0.76453769
0.6501236 2.7649419 -0.76707715
0.63900703 2.7896121 -0.76825535
0.63900703 2.7915778 -0.7631346
0.63876706 2.8146899 -0.76945281
0.64920443 2.921339 -0.76910591
0.65492427 2.922364 -0.76643592
0.66630203 3.0376625 -0.76320207
0.67233527 3.1282778 -0.76417017
0.66623276 3.1581249 -0.76832592
0.67237318 3.1581249 -0.76832592
0.66623276 3.1603253 -0.76259339
0.67237318 3.1603253 -0.76259339
0.62903017 3.1896348 -0.76966596
0.64142483 3.1896348 -0.76966596
0.66621417 3.1896348 -0.76966596
0.59804344 3.1918557 -0.76388019
0.60424078 3.1918557 -0.76388019
0.61663544 3.1918557 -0.76388019
0.6259315 3.1918557 -0.76388019
0.6352275 3.1918557 -0.76388019
0.6445235 3.1918557 -0.76388019
0.6538195 3.1918557 -0.76388019
0.6631155 3.1918557 -0.76388019
0.59738624 3.2239757 -0.76519084
0.72446483 1.6990818 -0.75513679
0.73566484 1.6999269 -0.75293547
0.70758939 1.7089988 -0.75695372
0.71470082 1.7089988 -0.75695372
0.72181225 1.7089988 -0.75695372
0.73425728 1.7089988 -0.75695372
0.69708645 1.719449 -0.75767756
0.70533115 1.7121298 -0.75278914
0.71470082 1.7109101 -0.7519744
0.72287899 1.7107826 -0.75230634
0.73307204 1.7106978 -0.75252765
0.69708645 1.7213706 -0.75267148
0.70244873 1.7207301 -0.75434017
0.68826717 1.7319435 -0.75337589
0.69329888 1.7310419 -0.75572467
0.79747468 2.6964531 -0.75539082
0.80721086 2.6961358 -0.75621706
0.81517673 2.696136 -0.75621712
0.65308565 2.7187042 -0.75977916
0.66379201 2.7187042 -0.75977916
0.67449832 2.7187042 -0.75977916
0.68520463 2.7187042 -0.75977916
0.69591093 2.7187042 -0.75977916
0.70661724 2.7187042 -0.75977916
0.714647 2.7187042 -0.75977916
0.72267675 2.7187042 -0.75977916
0.73338306 2.7187042 -0.75977916
0.74408937 2.7187042 -0.75977916
0.75479567 2.7187042 -0.75977916
0.76550198 2.7187042 -0.75977916
0.7762084 2.7187042 -0.75977916
0.78691471 2.7187042 -0.75977916
0.79494441 2.7187042 -0.75977916
0.65308565 2.7206225 -0.75478154
0.66379201 2.7206225 -0.75478154
0.67717487 2.7206225 -0.75478154
0.68520463 2.7206225 -0.75478154
0.69591093 2.7206225 -0.75478154
0.70661724 2.7206225 -0.75478154
0.714647 2.7206225 -0.75478154
0.72267675 2.7206225 -0.75478154
0.73338306 2.7206225 -0.75478154
0.74408937 2.7206225 -0.75478154
0.75479567 2.7206225 -0.75478154
0.76550198 2.7206225 -0.75478154
0.7762084 2.7206225 -0.75478154
0.78691471 2.7206225 -0.75478154
0.64487118 2.7455044 -0.75332284
0.63924289 2.7688413 -0.75691909
0.64468324 2.7688413 -0.75691909
0.63924289 2.7707911 -0.75184011
0.62803692 2.7945261 -0.75545347
0.63535029 2.7941983 -0.75630695
0.63600183 2.8206358 -0.75396347
0.64952183 2.8721564 -0.75615758
0.64936453 2.9006042 -0.75198758
0.66051441 2.9826601 -0.7553398
0.66630203 3.0397851 -0.75767279
0.66037935 3.0419075 -0.7521435
0.67233527 3.1315484 -0.75564963
0.66623276 3.1636262 -0.75399458
0.60424078 3.1951871 -0.75520164
0.61353678 3.1951871 -0.75520164
0.6259315 3.1951871 -0.75520164
0.6352275 3.1951871 -0.75520164
0.6445235 3.1951871 -0.75520164
0.6538195 3.1940765 -0.75809449
0.6631155 3.1940765 -0.75809449
0.70560157 1.7037293 -0.74302971
0.71621221 1.7037293 -0.74302977
0.72505426 1.7030956 -0.74468064
0.73507529 1.7024618 -0.74633163
0.69727772 1.7143507 -0.74301159
0.70699674 1.7132463 -0.74588847
0.68636209 1.7252139 -0.74265939
0.69315422 1.7243172 -0.74499547
0.78862375 2.6989906 -0.74878031
0.79658961 2.6989906 -0.74878031
0.8072108 2.6989906 -0.74878031
0.81517673 2.6989906 -0.74878031
0.77800256 2.7008939 -0.7438224
0.78596842 2.7008939 -0.7438224
0.79658961 2.7008939 -0.7438224
0.8072108 2.7008939 -0.7438224
0.81517673 2.7008939 -0.7438224
0.64505589 2.7235003 -0.74728513
0.65308565 2.7235 -0.74728513
0.66379201 2.7235003 -0.74728513
0.67449826 2.7235003 -0.74728513
0.68520463 2.7235 -0.74728513
0.69591099 2.7235003 -0.74728513
0.70661724 2.7235 -0.74728513
0.714647 2.7235003 -0.74728513
0.72267675 2.7235 -0.74728513
0.73338306 2.7235 -0.74728513
0.74408937 2.7235003 -0.74728513
0.75479567 2.7235003 -0.74728513
0.76550198 2.7225409 -0.74978399
0.7762084 2.7235 -0.74728513
0.63947475 2.7484052 -0.74576586
0.64487118 2.7484052 -0.74576586
0.63947475 2.7503393 -0.7407279
0.64487118 2.7503393 -0.7407279
0.635616 2.7733905 -0.74506807
0.6362645 2.7994404 -0.7426517
0.63323665 2.8226178 -0.74880028
0.64409965 2.8501785 -0.74463898
0.64936453 2.9036527 -0.74404562
0.65492427 2.9315882 -0.74240613
0.66051441 2.9857883 -0.7471903
0.66044754 3.0162315 -0.74279428
0.66037935 3.0450912 -0.74384952
0.66625077 3.1348193 -0.74712908
0.64781159 3.1669269 -0.74539578
0.653952 3.1669269 -0.74539578
0.66316259 3.1669269 -0.74539578
0.60424078 3.1985185 -0.74652302
0.64762217 3.1985185 -0.74652302
0.6631155 3.1985185 -0.74652302
0.60424078 3.2007394 -0.74073732
0.64762217 3.2007394 -0.74073732
0.66001683 3.2007394 -0.74073732
0.72474366 1.6972539 -0.73253697
0.73090053 1.6959932 -0.73582143
0.69764376 1.7065811 -0.73560029
0.70560157 1.7064228 -0.73601311
0.71621215 1.7062644 -0.73642582
0.72417009 1.7059474 -0.73725128
0.73035955 1.7049968 -0.73972774
0.68447715 1.7185556 -0.73205709
0.69247752 1.7176001 -0.73454666
0.75676018 2.7027969 -0.73886454
0.76207078 2.7027969 -0.73886454
0.77800256 2.7037485 -0.73638558
0.78596842 2.7037487 -0.73638564
0.79658961 2.7037487 -0.73638564
0.80721086 2.7037487 -0.73638558
0.81517673 2.7037485 -0.73638558
0.64505589 2.7273369 -0.73728997
0.65308565 2.7273369 -0.73728997
0.66379201 2.7273369 -0.73728997
0.67449826 2.7273369 -0.73728997
0.68520463 2.7273369 -0.73728997
0.69591093 2.7273369 -0.73728997
0.70661724 2.7273369 -0.73728997
0.714647 2.7273369 -0.73728997
0.72267675 2.7273369 -0.73728997
0.73338306 2.7273369 -0.73728997
0.74408942 2.7273369 -0.73729002
0.75479567 2.7273369 -0.73728997
0.76460981 2.7270172 -0.73812294
0.77531624 2.7270172 -0.73812294
0.63767594 2.7529175 -0.73401052
0.64487118 2.7532401 -0.73317087
0.63924289 2.7776148 -0.73406351
0.63900703 2.8023889 -0.73497057
0.63876706 2.8285635 -0.73331094
0.65492427 2.9346628 -0.73439622
0.66051441 2.9889166 -0.73904085
0.66051441 2.9910021 -0.73360789
0.66044754 3.0193872 -0.73457325
0.66037935 3.048275 -0.73555553
0.66037935 3.0503976 -0.73002625
0.66329765 3.0787494 -0.73376578
0.66626835 3.1086922 -0.73475808
0.66625077 3.1380899 -0.7386086
0.60482883 3.1691275 -0.73966324
0.61403942 3.1691275 -0.73966324
0.62632024 3.1691275 -0.73966324
0.63553083 3.1691275 -0.73966324
0.64781159 3.1691275 -0.73966324
0.66623276 3.1691275 -0.73966324
0.67237318 3.1691275 -0.73966324
0.60482883 3.1713278 -0.73393065
0.61403942 3.1713278 -0.73393065
0.62632024 3.1713278 -0.73393065
0.63553083 3.1713278 -0.73393065
0.64781159 3.1713278 -0.73393065
0.66316259 3.1713278 -0.73393065
0.67237318 3.1713278 -0.73393065
0.60424078 3.2029603 -0.73495162
0.62903017 3.2029603 -0.73495162
0.64762217 3.2029603 -0.73495162
0.6631155 3.2029603 -0.73495162
0.59425855 3.2374258 -0.73015159
0.60676926 3.2374258 -0.73015159
0.628663 3.2374258 -0.73015159
0.59355927 3.2702794 -0.73115575
0.60934544 3.2702794 -0.73115575
0.61565989 3.2702794 -0.73115575
0.63460326 3.2702794 -0.73115575
0.71243006 1.6997756 -0.72596794
0.72474372 1.6991452 -0.72761023
0.73002094 1.6991452 -0.72761023
0.69583261 1.7068585 -0.72803736
0.70551842 1.705694 -0.72696656
0.71520066 1.7049178 -0.72625268
0.72425777 1.7036239 -0.72506291
0.73002094 1.7010363 -0.72268343
0.69569844 1.7105738 -0.72519928
0.70560157 1.7107005 -0.72486901
0.72328585 1.7100668 -0.72652
0.73743325 1.7113342 -0.72321808
0.68447715 1.721104 -0.72541791
0.69277382 1.7208918 -0.72597122
0.76207078 2.7075548 -0.72646987
0.77534723 2.7075548 -0.72646987
0.78596842 2.7075548 -0.72646987
0.79658961 2.7075548 -0.72646987
0.8072108 2.7075548 -0.72646987
0.81517673 2.7075548 -0.72646987
0.64505589 2.7311738 -0.72729474
0.65308565 2.7311738 -0.72729468
0.66379201 2.731174 -0.72729474
0.67449826 2.7311738 -0.72729468
0.68520463 2.731174 -0.72729474
0.69591093 2.731174 -0.72729474
0.70661724 2.731174 -0.72729474
0.714647 2.7311738 -0.72729474
0.72267675 2.7311738 -0.72729468
0.73338306 2.7311738 -0.72729468
0.74408937 2.731174 -0.72729474
0.75479567 2.731174 -0.72729474
0.76282543 2.7302146 -0.72979355
0.77353179 2.7311738 -0.72729474
0.63947475 2.7571077 -0.72309494
0.64487118 2.7571077 -0.72309494
0.63924289 2.7815142 -0.72390544
0.63717866 2.8066475 -0.7238757
0.64409965 2.856174 -0.7290203
0.64952183 2.8832407 -0.72728235
0.65492427 2.9387624 -0.72371632
0.66057992 2.9672415 -0.72188687
0.66051441 2.9941306 -0.72545844
0.66044754 3.022543 -0.72635216
0.66630203 3.05252 -0.72449696
0.66628546 3.0819616 -0.72539771
0.66626835 3.1119337 -0.72631443
0.67229789 3.1140945 -0.7206853
0.67233527 3.1435411 -0.72440767
0.60482883 3.1735284 -0.72819811
0.61403942 3.1735284 -0.72819811
0.62939042 3.1735284 -0.72819811
0.63553083 3.1746287 -0.72533178
0.64781159 3.1746287 -0.72533178
0.66623276 3.1735284 -0.72819811
0.67442006 3.1749954 -0.72437638
0.59494478 3.2051811 -0.72916591
0.60424078 3.2051811 -0.72916591
0.61353678 3.2062917 -0.72627306
0.62696439 3.2059214 -0.7272374
0.6352275 3.2062917 -0.72627306
0.64555639 3.2066619 -0.72530872
0.6538195 3.2074022 -0.72338021
0.6631155 3.2062917 -0.72627306
0.67447734 3.2066619 -0.72530872
0.59738624 3.2396677 -0.72431171
0.61615229 3.2396677 -0.72431171
0.62240767 3.2396677 -0.72431171
0.63491833 3.2396677 -0.72431171
0.64430141 3.2396677 -0.72431171
0.65368444 3.2396677 -0.72431171
0.66619515 3.2396677 -0.72431171
0.67557812 3.2396677 -0.72431171
0.59355927 3.2725422 -0.72526073
0.60618818 3.2725422 -0.72526073
0.61565989 3.2725422 -0.72526073
0.62513161 3.2725422 -0.72526073
0.63460326 3.2725422 -0.72526073
0.64407492 3.2725422 -0.72526073
0.65354663 3.2725422 -0.72526073
0.60240847 3.3071852 -0.72325194
0.61515784 3.3071852 -0.72325194
0.62153256 3.3083274 -0.7202763
0.63428193 3.3083274 -0.7202763
0.64278156 3.3068044 -0.72424382
0.65765584 3.3075659 -0.72226006
0.6661554 3.3083274 -0.7202763
0.65326256 3.3401883 -0.72721297
0.65624797 3.4128399 -0.72311449
0.66609168 3.4128399 -0.72311449
0.67593539 3.4128399 -0.72311449
0.68577909 3.4128399 -0.72311449
0.69234163 3.4128399 -0.72311449
0.69483918 1.7048187 -0.71282995
0.70539373 1.703558 -0.71611446
0.71594816 1.703558 -0.71611452
0.72474366 1.703558 -0.71611446
0.73303652 1.7039182 -0.71517605
0.68482262 1.7149782 -0.71372503
0.69454896 1.7140276 -0.71620148
0.70206475 1.7126018 -0.71991616
0.73566484 1.7157705 -0.71166134
0.74214906 1.7159818 -0.71111101
0.68803287 1.7268384 -0.71047992
0.81928349 2.6871397 -0.7182796
0.74613899 2.7123127 -0.71407521
0.75498992 2.7116783 -0.71572781
0.76384097 2.7116783 -0.71572781
0.77534723 2.7113612 -0.71655416
0.78596848 2.7113612 -0.71655416
0.79658961 2.7113609 -0.71655411
0.8072108 2.7113609 -0.71655411
0.81517673 2.7113612 -0.71655416
0.64505589 2.7350106 -0.71729952
0.65308565 2.7350106 -0.71729958
0.66379201 2.7350106 -0.71729958
0.67539048 2.7346909 -0.7181325
0.68520463 2.7340515 -0.71979833
0.69680309 2.7346909 -0.7181325
0.70661724 2.7350106 -0.71729958
0.714647 2.7350106 -0.71729952
0.72356892 2.7346909 -0.7181325
0.73427528 2.7346909 -0.7181325
0.7431972 2.7346909 -0.7181325
0.63767594 2.7612979 -0.71217936
0.63924289 2.7863882 -0.71120799
0.63900703 2.8092687 -0.71704805
0.64429754 2.8345094 -0.7178216
0.64967626 2.8601708 -0.7186079
0.64952183 2.8872714 -0.71678221
0.65503585 2.9148309 -0.71492517
0.66057992 2.9693091 -0.71650076
0.66051441 2.9972587 -0.71730894
0.66631818 3.0267506 -0.71539068
0.67218882 3.0256987 -0.71813107
0.66630203 3.0557036 -0.71620297
0.66628546 3.0841031 -0.71981895
0.67229789 3.1162553 -0.71505618
0.67841977 3.147902 -0.71304697
0.68450421 3.147902 -0.71304697
0.6538195 3.2096231 -0.7175945
0.67860889 3.2096231 -0.7175945
0.67860889 3.211844 -0.7118088
0.65681207 3.2419093 -0.71847188
0.66619515 3.2419093 -0.71847188
0.67557812 3.2419093 -0.71847188
0.60303098 3.2759366 -0.71641809
0.61565989 3.2748053 -0.7193656
0.62407917 3.2755594 -0.71740055
0.64723217 3.2748053 -0.7193656
0.65986109 3.2748053 -0.7193656
0.66617554 3.2759366 -0.71641809
0.67564726 3.2759368 -0.71641803
0.68511891 3.2748053 -0.7193656
0.59603381 3.310612 -0.71432507
0.60559583 3.310612 -0.71432507
0.61515784 3.310612 -0.71432507
0.62471992 3.310612 -0.71432507
0.63428193 3.310612 -0.71432507
0.64384401 3.310612 -0.71432507
0.65659338 3.310612 -0.71432507
0.6661554 3.310612 -0.71432507
0.67253011 3.310612 -0.71432507
0.64360845 3.3448014 -0.71519578
0.65648061 3.3448014 -0.71519578
0.66613477 3.3448014 -0.71519578
0.65961486 3.3819838 -0.71001613
0.6661135 3.3819838 -0.71001613
0.68560952 3.3819838 -0.71001613
0.63984174 3.4175436 -0.71086127
0.65624797 3.4151919 -0.71698785
0.66609168 3.4175436 -0.71086127
0.67921662 3.4151919 -0.71698785
0.68577909 3.4163678 -0.71392453
0.69562286 3.4175436 -0.71086127
0.64618659 3.4538078 -0.71172291
0.65612793 3.4526203 -0.71481657
0.66606927 3.4526203 -0.71481657
0.6771152 3.4530163 -0.71378535
0.68595189 3.4526203 -0.71481657
0.69542551 1.7071303 -0.70680839
0.70539379 1.7073404 -0.70626098
0.71594822 1.7073404 -0.70626098
0.72474366 1.7073404 -0.70626098
0.73178005 1.7076555 -0.70543987
0.68791735 1.7183055 -0.70505744
0.69499111 1.7183055 -0.70505744
0.70206475 1.7189392 -0.70340645
0.74273854 1.7176718 -0.70670843
0.6879943 1.7259021 -0.70370191
0.69499111 1.7202067 -0.70010453
0.70206475 1.7202067 -0.70010453
0.81928349 2.6918602 -0.70598269
0.66470981 2.7154846 -0.70581216
0.67533094 2.7154846 -0.70581216
0.68506712 2.7151675 -0.70663846
0.69568825 2.7161191 -0.7041595
0.70630944 2.7161191 -0.7041595
0.71427536 2.7151675 -0.7066384
0.72489661 2.7151675 -0.7066384
0.7355178 2.7161191 -0.7041595
0.74436879 2.7148502 -0.70746469
0.75410485 2.7151675 -0.70663846
0.7647261 2.7151673 -0.7066384
0.77534723 2.7151673 -0.7066384
0.78596842 2.7151673 -0.7066384
0.79658961 2.7151673 -0.7066384
0.80721086 2.7151675 -0.70663846
0.81517673 2.7151675 -0.7066384
0.63970274 2.7388473 -0.7073043
0.64505589 2.7388473 -0.7073043
0.65308565 2.7388473 -0.7073043
0.66111541 2.7388473 -0.7073043
0.7253533 2.7378881 -0.7098031
0.73605967 2.7388473 -0.7073043
0.74676597 2.7388473 -0.7073043
0.63947475 2.7648435 -0.70294297
0.64487118 2.7658105 -0.70042402
0.63924289 2.7883379 -0.70612895
0.64468324 2.7902875 -0.70104992
0.64449203 2.8141828 -0.70424628
0.64429754 2.8384731 -0.70749533
0.64429754 2.8404551 -0.7023322
0.65503585 2.9178796 -0.70698327
0.65492427 2.9459369 -0.70502651
0.66057992 2.9755116 -0.70034254
0.66631818 3.0299065 -0.70716965
0.66630203 3.0588875 -0.70790905
0.66630203 3.0610101 -0.7023797
0.67222476 3.0610101 -0.7023797
0.67851359 3.1823306 -0.70526791
0.68465394 3.1823306 -0.70526791
0.67860889 3.2151754 -0.70313013
0.68480623 3.2151754 -0.70313013
0.69100356 3.2162859 -0.70023727
0.67870581 3.2463927 -0.70679212
0.6849612 3.2486343 -0.70095223
0.67564726 3.279331 -0.7075755
0.68511891 3.279331 -0.7075755
0.67880446 3.281594 -0.70168042
0.59603381 3.3140388 -0.70539808
0.60453337 3.313658 -0.7063899
0.61515784 3.3128965 -0.70837373
0.62471992 3.3128965 -0.70837373
0.6661554 3.3128965 -0.70837373
0.67677993 3.313658 -0.70638996
0.68527949 3.315181 -0.70242238
0.59533781 3.3494143 -0.70317852
0.60499191 3.3494143 -0.70317852
0.61464608 3.3482611 -0.70618284
0.62430024 3.3482611 -0.70618284
0.63395435 3.3482611 -0.70618284
0.68544298 3.3494143 -0.70317852
0.58488011 3.3843126 -0.70394903
0.58406067 3.4198954 -0.70473468
0.59390438 3.4198954 -0.70473468
0.60046691 3.4198954 -0.70473468
0.62671679 3.4198954 -0.70473468
0.63327926 3.4198954 -0.70473468
0.68577909 3.4198954 -0.70473468
0.69234163 3.4198954 -0.70473468
0.59647989 3.456183 -0.70553559
0.60642123 3.456183 -0.70553559
0.61304879 3.456183 -0.70553559
0.62630391 3.456183 -0.70553559
0.63624525 3.456183 -0.70553559
0.65612793 3.456183 -0.70553559
0.66606927 3.456183 -0.70553559
0.67601061 3.456183 -0.70553559
0.68595189 3.456183 -0.70553559
0.69257945 3.456183 -0.70553559
0.59910685 3.4955952 -0.7001031
0.60580081 3.4955952 -0.7001031
0.61249471 3.4955952 -0.7001031
0.63480783 3.4947956 -0.70218617
0.64596438 3.4955952 -0.7001031
0.70539373 1.7098621 -0.69969195
0.71594828 1.7098621 -0.69969195
0.72474366 1.709862 -0.69969195
0.7335391 1.7098621 -0.69969195
0.74057543 1.709862 -0.69969195
0.69835734 1.7123836 -0.69312298
0.70539373 1.711753 -0.69476527
0.71594816 1.7117532 -0.69476527
0.72474372 1.7117532 -0.69476521
0.73265958 1.7114379 -0.69558638
0.74057543 1.7111228 -0.6964075
0.68703318 1.7224249 -0.69432616
0.69454896 1.7227416 -0.69350064
0.68803287 1.734484 -0.69056261
0.81928349 2.6956363 -0.69614518
0.65585881 2.7199252 -0.69424373
0.66382468 2.7189736 -0.69672263
0.67444587 2.7189736 -0.69672263
0.68506712 2.7189736 -0.69672263
0.69568825 2.7189736 -0.69672263
0.70630944 2.7189736 -0.69672263
0.71693063 2.7189736 -0.69672263
0.72489661 2.7189736 -0.69672263
0.73374766 2.7192907 -0.69589633
0.74436879 2.7192907 -0.69589633
0.75410485 2.7189736 -0.69672263
0.7647261 2.7189736 -0.69672263
0.77534723 2.7189736 -0.69672263
0.78596842 2.7189736 -0.69672263
0.79658961 2.7189736 -0.69672263
0.80721086 2.7189736 -0.69672263
0.81517673 2.7189736 -0.69672263
0.63970274 2.741725 -0.69980788
0.64505589 2.7426841 -0.69730908
0.65308565 2.7426841 -0.69730908
0.64487118 2.7687111 -0.69286704
0.64468324 2.7932119 -0.69343138
0.64449203 2.8181143 -0.69400477
0.64429754 2.8434281 -0.69458753
0.65503585 2.9219446 -0.69639403
0.66057992 2.9775791 -0.69495654
0.66342413 3.0056009 -0.69557703
0.67222476 3.0631325 -0.69685042
0.68480623 3.2185068 -0.69445157
0.67870581 3.2508762 -0.69511235
0.68511891 3.2838569 -0.6957854
0.68527949 3.3174653 -0.69647115
0.69165421 3.3197498 -0.69051987
0.58890176 3.3517208 -0.69716996
0.59533781 3.3517208 -0.69716996
0.60499191 3.3517208 -0.69716996
0.61464608 3.3517208 -0.69716996
0.62108219 3.3517208 -0.69716996
0.69187909 3.3517208 -0.69716996
0.6043762 3.3866415 -0.69788206
0.61412418 3.3866415 -0.69788206
0.69644064 3.3874178 -0.69585973
0.61359185 3.4222472 -0.6986081
0.63984174 3.4222472 -0.6986081
0.69562286 3.4234231 -0.69554478
0.58653861 3.4585581 -0.69934821
0.59647989 3.4585581 -0.69934821
0.60642123 3.4585581 -0.69934821
0.61636257 3.4585581 -0.69934821
0.63624525 3.4585581 -0.69934821
0.64618659 3.4585581 -0.69934821
0.65612793 3.4585581 -0.69934821
0.66606927 3.4585581 -0.69934821
0.67601061 3.4585581 -0.69934821
0.68595189 3.4585581 -0.69934821
0.69257945 3.4585581 -0.69934821
0.58653861 3.4609332 -0.69316083
0.61636257 3.4609332 -0.69316083
0.64618659 3.4609332 -0.69316083
0.65612793 3.4609332 -0.69316083
0.66606927 3.4609332 -0.69316083
0.67601061 3.4609332 -0.69316083
0.68595189 3.4609332 -0.69316083
0.69589323 3.4609332 -0.69316083
0.70583457 3.4609332 -0.69316083
0.59910685 3.4979942 -0.6938538
0.60580081 3.4979942 -0.6938538
0.63257653 3.4979942 -0.6938538
0.6727401 3.4979942 -0.6938538
0.72793591 1.7049558 -0.68539786
0.73528522 1.7046423 -0.68621469
0.69747782 1.7145901 -0.68737507
0.70539373 1.714905 -0.68655396
0.71594822 1.714905 -0.68655396
0.72386414 1.71459 -0.68737507
0.73236638 1.7140646 -0.68874359
0.68791735 1.7265441 -0.68359488
0.69617003 1.726333 -0.68414527
0.68803287 1.7370324 -0.68392348
0.6951443 1.7370323 -0.68392354
0.6917243 1.7489141 -0.6809181
0.81664914 2.6984687 -0.68876708
0.80611175 2.7003567 -0.68384826
0.81664914 2.7003567 -0.68384826
0.65585881 2.72278 -0.68680692
0.66382468 2.72278 -0.68680692
0.67444587 2.7227802 -0.68680692
0.68506712 2.72278 -0.68680692
0.69568825 2.72278 -0.68680692
0.70630944 2.72278 -0.68680692
0.71693063 2.72278 -0.68680692
0.72489661 2.72278 -0.68680692
0.73286247 2.72278 -0.68680692
0.74348366 2.72278 -0.68680692
0.75410485 2.72278 -0.68680692
0.7647261 2.72278 -0.68680692
0.77534723 2.7227802 -0.68680692
0.78596842 2.72278 -0.68680692
0.79658961 2.7227802 -0.68680692
0.80455554 2.72278 -0.68680692
0.64505589 2.746521 -0.68731385
0.65308565 2.746521 -0.68731385
0.64487118 2.7725792 -0.68279105
0.64468324 2.7971113 -0.68327332
0.64449203 2.8220453 -0.68376338
0.64429754 2.846401 -0.68684286
0.64967626 2.8721619 -0.68737054
0.65503585 2.924993 -0.68845212
0.66064417 2.9520862 -0.68900669
0.68465394 3.1889322 -0.68807018
0.69386458 3.1889322 -0.68807018
0.67851359 3.1911325 -0.6823377
0.68465394 3.1911325 -0.6823377
0.67860889 3.2207277 -0.68866587
0.68480623 3.2229486 -0.68288016
0.6849612 3.2542386 -0.68635249
0.68511891 3.2861197 -0.68989038
0.69165421 3.3220344 -0.68456858
0.6983152 3.3563337 -0.68515277
0.69860685 3.3912992 -0.68574798
0.70510554 3.3912992 -0.68574798
0.65296674 3.4293025 -0.68022829
0.70546657 3.4269507 -0.68635488
0.71531028 3.4281266 -0.68329155
0.72515398 3.4293025 -0.68022829
0.58653861 3.4644957 -0.68387985
0.59647989 3.4656832 -0.68078619
0.60642123 3.4644957 -0.68387985
0.61636257 3.4644957 -0.68387985
0.62630391 3.4656832 -0.68078619
0.63624525 3.4644957 -0.68387985
0.64618659 3.4644957 -0.68387985
0.65502334 3.4648914 -0.68284863
0.66606927 3.4656832 -0.68078619
0.67601061 3.4644957 -0.68387985
0.68595189 3.4644957 -0.68387985
0.69589323 3.4644957 -0.68387985
0.70583457 3.4644957 -0.68387985
0.71577591 3.4644957 -0.68387985
0.7191866 1.7084049 -0.67641294
0.7271859 1.7082256 -0.67687976
0.73493528 1.7084049 -0.676413
0.74193466 1.7090319 -0.6747793
0.69835734 1.7186875 -0.67670041
0.70539373 1.7186875 -0.67670053
0.7155084 1.7185299 -0.67711109
0.72562325 1.7186875 -0.67670047
0.73529816 1.7199484 -0.67341602
0.7440936 1.7199484 -0.67341596
0.69852793 1.7290791 -0.67699099
0.70539373 1.7212092 -0.6701315
0.71594816 1.7212092 -0.6701315
0.72650278 1.7212092 -0.6701315
0.7335391 1.7212092 -0.6701315
0.74409366 1.7212092 -0.6701315
0.69649774 1.7361408 -0.67518586
0.70206475 1.7309804 -0.67203808
0.68803287 1.7414923 -0.67230499
0.69514424 1.7414923 -0.67230493
0.69529909 1.7527574 -0.67090601
0.68756586 2.704133 -0.67401075
0.79557431 2.704133 -0.67401075
0.80611169 2.7031889 -0.67647016
0.8166492 2.7031891 -0.67647016
0.65585881 2.7265863 -0.67689121
0.66382468 2.7265863 -0.67689121
0.67444587 2.7265863 -0.67689121
0.68595219 2.726269 -0.67771751
0.69834358 2.7265863 -0.67689121
0.70630944 2.7265863 -0.67689121
0.71693063 2.7265863 -0.67689121
0.72489661 2.7265863 -0.67689121
0.73286247 2.7265863 -0.67689121
0.74348366 2.7265863 -0.67689121
0.75410485 2.7265863 -0.67689121
0.7647261 2.7265863 -0.67689121
0.77534723 2.7265863 -0.67689121
0.78596842 2.7265863 -0.67689121
0.79570454 2.7269037 -0.67606491
0.80455554 2.7275379 -0.67441225
0.64505589 2.7493985 -0.67981744
0.65308565 2.7493985 -0.67981744
0.64505589 2.751317 -0.67481983
0.65308565 2.751317 -0.67481983
0.64487118 2.7764468 -0.67271507
0.64468324 2.8010106 -0.67311525
0.64449203 2.8259768 -0.67352188
0.64429754 2.8513556 -0.67393506
0.64967626 2.8781571 -0.67175186
0.65503585 2.9290578 -0.67786288
0.68450421 3.1631656 -0.67328453
0.69058871 3.1631656 -0.67328453
0.68465394 3.1944335 -0.67373884
0.69079435 3.1955338 -0.67087257
0.68480623 3.2262802 -0.67420161
0.6849612 3.2576013 -0.67759275
0.69459057 3.2906456 -0.67810023
0.70406234 3.2906456 -0.67810023
0.69802886 3.3243189 -0.6786173
0.70440358 3.3243189 -0.6786173
0.70475125 3.3586402 -0.67914414
0.71118736 3.3586402 -0.67914414
0.71485353 3.3936284 -0.67968094
0.71859151 3.4316542 -0.67410165
0.58653861 3.4680583 -0.67459881
0.59647989 3.4680583 -0.67459881
0.60642123 3.4680583 -0.67459881
0.62630391 3.4680583 -0.67459881
0.63624525 3.4680583 -0.67459881
0.64618659 3.4680583 -0.67459881
0.65612793 3.4680583 -0.67459881
0.66606927 3.4680583 -0.67459881
0.67601061 3.4680583 -0.67459881
0.68595189 3.4680583 -0.67459881
0.69589323 3.4680583 -0.67459881
0.70583457 3.4680583 -0.67459881
0.71577591 3.4680583 -0.67459881
0.71848667 1.7124182 -0.66595781
0.72618604 1.7109132 -0.66987842
0.70656651 1.7233105 -0.66465735
0.71594816 1.7237308 -0.66356254
0.72562325 1.7240459 -0.66274136
0.7335391 1.7237309 -0.66356254
0.74308836 1.7235508 -0.66403168
0.69852799 1.7341491 -0.66378331
0.70515949 1.7343075 -0.66337049
0.68803287 1.7434038 -0.66732574
0.69656658 1.7444232 -0.66467011
0.69529909 1.7553196 -0.6642313
0.67702848 2.7069652 -0.66663265
0.68756586 2.7069652 -0.66663265
0.69283462 2.7079093 -0.66417325
0.79557431 2.7079093 -0.66417325
0.80611175 2.7069652 -0.66663265
0.81664914 2.7069652 -0.66663265
0.65585881 2.7294409 -0.66945434
0.66382468 2.7294409 -0.66945434
0.67444587 2.7294409 -0.66945434
0.68772238 2.7294409 -0.66945434
0.70630944 2.7294409 -0.66945434
0.71693063 2.7294409 -0.66945434
0.72489661 2.7294409 -0.66945434
0.73286247 2.7294409 -0.66945434
0.74348366 2.7294409 -0.66945434
0.75410485 2.7294409 -0.66945434
0.76472604 2.7294409 -0.66945434
0.77534723 2.7294409 -0.66945434
0.78596842 2.7294409 -0.66945434
0.79393435 2.7294409 -0.66945434
0.65320349 2.7313442 -0.66449654
0.66382468 2.7313442 -0.66449654
0.67444587 2.7313442 -0.66449654
0.68772238 2.7313442 -0.66449654
0.70365417 2.7313442 -0.66449654
0.72489661 2.7313442 -0.66449654
0.7355178 2.7313442 -0.66449654
0.74348366 2.7313442 -0.66449654
0.75410485 2.7313442 -0.66449654
0.76472604 2.7313442 -0.66449654
0.77534723 2.7313442 -0.66449654
0.78596842 2.7313442 -0.66449654
0.79658961 2.7313442 -0.66449654
0.64505589 2.7541947 -0.66732341
0.65040904 2.7541947 -0.66732341
0.64487118 2.7793477 -0.66515815
0.63947475 2.7812815 -0.66012013
0.64487118 2.7812815 -0.66012013
0.63924289 2.8058848 -0.66041774
0.64967626 2.8801558 -0.66654563
0.64577276 2.9070885 -0.66515666
0.68465394 3.1977341 -0.66514003
0.60484189 3.4355738 -0.66389066
0.61359185 3.4351819 -0.66491175
0.71859151 3.4351819 -0.66491175
0.73171645 3.434006 -0.66797507
0.58653861 3.471621 -0.66531777
0.59647989 3.471621 -0.66531777
0.62630391 3.471621 -0.66531777
0.63624525 3.471621 -0.66531777
0.64618659 3.471621 -0.66531777
0.65612793 3.471621 -0.66531777
0.66606927 3.471621 -0.66531777
0.67601061 3.471621 -0.66531777
0.68595189 3.471621 -0.66531777
0.69589323 3.471621 -0.66531777
0.70583457 3.471621 -0.66531777
0.71577591 3.471621 -0.66531777
0.7191866 1.7184383 -0.65027499
0.72443616 1.7184383 -0.65027499
0.7366851 1.7178111 -0.65190864
0.74135137 1.7176021 -0.65245318
0.7089119 1.7275132 -0.65370899
0.71594816 1.7275132 -0.65370893
0.72474366 1.7262524 -0.65699351
0.73454428 1.7273331 -0.6541782
0.69711316 1.7379516 -0.65387744
0.70515954 1.7377931 -0.6542902
0.69443309 1.748246 -0.65471137
0.67702848 2.7097974 -0.65925449
0.68756586 2.7097974 -0.65925449
0.69283462 2.7097974 -0.65925449
0.70600635 2.7097974 -0.65925449
0.71390939 2.7097974 -0.65925449
0.72444683 2.7097974 -0.65925449
0.79820865 2.7097974 -0.65925449
0.80611175 2.7097974 -0.65925449
0.81664914 2.7097974 -0.65925449
0.67702848 2.7116857 -0.65433574
0.68493152 2.7116857 -0.65433574
0.69283462 2.7116857 -0.65433574
0.70600635 2.7116857 -0.65433574
0.71390939 2.7116857 -0.65433574
0.72444683 2.7116857 -0.65433574
0.78503692 2.7116857 -0.65433574
0.79557431 2.7116857 -0.65433574
0.80611175 2.7116857 -0.65433574
0.81664914 2.7116857 -0.65433574
0.65320349 2.7341988 -0.65705967
0.66382468 2.7341988 -0.65705967
0.67444587 2.7341988 -0.65705973
0.70365417 2.7332473 -0.65953863
0.72489661 2.7341988 -0.65705967
0.73374754 2.7345161 -0.65623337
0.74348366 2.734199 -0.65705967
0.75410485 2.734199 -0.65705967
0.7647261 2.734199 -0.65705967
0.77534723 2.734199 -0.65705967
0.78331316 2.7332473 -0.65953863
0.64505589 2.7580314 -0.65732825
0.65040904 2.7580314 -0.65732825
0.63947475 2.7841825 -0.6525631
0.64487118 2.7832155 -0.65508211
0.63924289 2.8078344 -0.65533876
0.64449203 2.8328567 -0.65559936
0.64429754 2.8582926 -0.65586412
0.63876706 2.8602746 -0.65070105
0.64429754 2.8602746 -0.65070105
0.63852298 2.8861511 -0.65092695
0.64409965 2.8861511 -0.65092695
0.68435705 3.1378632 -0.65876532
0.69038665 3.1378632 -0.65876532
0.68435705 3.1400242 -0.65313613
0.69038665 3.1400242 -0.65313613
0.68450421 3.1686168 -0.6590836
0.69363093 3.1707971 -0.65340328
0.69079435 3.1999347 -0.6594075
0.68465394 3.2021353 -0.6536749
0.69079435 3.2021353 -0.6536749
0.71810287 3.4029438 -0.65541285
0.60374814 3.4387097 -0.65572184
0.61359185 3.4387097 -0.65572184
0.71859151 3.4387097 -0.65572184
