# .PCD v0.7 - Point Cloud Data file format
VERSION 0.7
FIELDS x y z
SIZE 4 4 4
TYPE F F F
COUNT 1 1 1
WIDTH 1465
HEIGHT 1
VIEWPOINT 0 0 0 1 0 0 0
POINTS 1465
DATA ascii
-0.87151521 1.7880638 -1.4654253
-0.8749072 1.8031063 -1.4648479
-0.87410909 1.8183397 -1.464263
-0.86987615 1.8175812 -1.4662389
-0.87259054 1.832749 -1.4663213
-0.86691058 1.8330035 -1.4656585
-0.86819398 1.8478556 -1.4670718
-0.86819398 1.8501602 -1.4610679
-0.8694939 1.8652188 -1.4624603
-0.87081051 1.8789165 -1.4679252
-0.8664673 1.8789165 -1.4679252
-0.8664673 1.880473 -1.4638705
-0.86340076 1.8959264 -1.4652987
-0.85902911 1.8959264 -1.4652987
-0.86249387 1.9123719 -1.4646913
-0.86378956 1.9282415 -1.4661431
-0.87179124 1.9451215 -1.4655325
-0.86287266 1.9451214 -1.4655324
-0.8584134 1.9451214 -1.4655324
-0.85610723 1.9623893 -1.4644941
-0.8577705 1.9971403 -1.4636484
-0.85678619 2.0141339 -1.4651411
-0.86040157 2.0321889 -1.4645007
-0.85348147 2.0321887 -1.4645005
-0.84656131 2.0330155 -1.4623471
-0.84780771 2.0496621 -1.4660192
-0.85245323 2.051327 -1.4616823
-0.84780771 2.051327 -1.4616823
-0.85427856 2.0870354 -1.4647217
-0.86114097 2.1061194 -1.4640584
-0.85402405 2.1061194 -1.4640584
-0.85296947 2.1246202 -1.465616
-0.85430598 2.1425247 -1.4694424
-0.84588325 2.1438184 -1.4660724
-0.84354174 2.1641636 -1.4642718
-0.8423866 2.1834931 -1.4658642
-0.83587533 2.1837847 -1.4651045
-0.83383512 2.2039886 -1.4651829
-0.83506846 2.224788 -1.4644916
-0.83382344 2.2450027 -1.4661198
-0.826334 2.2458973 -1.4637892
-0.82501352 2.2673244 -1.4630761
-0.81746769 2.2673244 -1.4630761
-0.81353539 2.2881684 -1.4647179
-0.81975776 2.3102455 -1.464
-0.80548829 2.3326621 -1.4632709
-0.80655754 2.3544974 -1.4649513
-0.80764335 2.3766737 -1.4666574
-0.80611169 2.4010873 -1.4634717
-0.79658961 2.4239857 -1.4651924
-0.79494441 2.4472504 -1.4669404
-0.8013671 2.4718575 -1.4661976
-0.79597068 2.4728246 -1.4636786
-0.80245382 2.4978397 -1.4629027
-0.79429328 2.4968648 -1.4654421
-0.79533058 2.5212994 -1.4672343
-0.78527468 2.5216267 -1.4663807
-0.7825588 2.5481195 -1.4638925
-0.77702838 2.5481195 -1.4638925
-0.77236187 2.5733888 -1.4657009
-0.76678526 2.574388 -1.4630978
-0.76761669 2.6000903 -1.4649144
-0.76846194 2.6272445 -1.464114
-0.76741487 2.6541798 -1.4650797
-0.75577265 2.6819243 -1.4651638
-0.75437784 2.738523 -1.4662492
-0.95129192 2.9231234 -1.4639518
-0.93372846 1.4299506 -1.4562474
-0.92842317 1.4299506 -1.4562474
-0.92665476 1.4312181 -1.4529455
-0.92271072 1.4414047 -1.4540602
-0.91826606 1.4414046 -1.4540603
-0.92051166 1.4517002 -1.4551868
-0.91550696 1.4519565 -1.4545194
-0.91469449 1.4621066 -1.4563252
-0.91363215 1.4739202 -1.454102
-0.91558564 1.4845605 -1.4552461
-0.92425787 1.4959714 -1.454697
-0.9175604 1.4944439 -1.458676
-0.93118882 1.5075078 -1.4541416
-0.92489165 1.5073197 -1.4546316
-0.9164955 1.5061914 -1.4575709
-0.93265581 1.5198336 -1.4518554
-0.92480677 1.5186753 -1.4548726
-0.91464913 1.5186753 -1.4548726
-0.91309142 1.5291905 -1.4576344
-0.90628201 1.5289688 -1.4582124
-0.91371047 1.5309653 -1.453011
-0.90813911 1.5309653 -1.453011
-0.9169631 1.54356 -1.4506922
-0.90725183 1.5422215 -1.4541793
-0.90710562 1.5536038 -1.4553603
-0.91224593 1.5657921 -1.4547911
-0.90657979 1.5657921 -1.4547911
-0.89335883 1.566469 -1.4530277
-0.88958144 1.566469 -1.4530277
-0.92124349 1.5794799 -1.4506683
-0.91554505 1.5787992 -1.4524416
-0.90557289 1.5782887 -1.4537717
-0.8927514 1.5781184 -1.4542149
-0.89213681 1.5892168 -1.4571989
-0.89213681 1.5912707 -1.4518484
-0.89343625 1.6025083 -1.4548354
-0.89552367 1.6149839 -1.4549701
-0.89219248 1.626072 -1.4590983
-0.88733304 1.6278136 -1.4545617
-0.88373852 1.6398122 -1.4567034
-0.88764894 1.6412137 -1.4530528
-0.89091831 1.6544189 -1.4524438
-0.88501817 1.6537141 -1.4542799
-0.87911814 1.6537141 -1.4542799
-0.88367504 1.6668353 -1.4542899
-0.88364244 1.6791619 -1.4567771
-0.88563263 1.6805884 -1.4530611
-0.88394278 1.6931905 -1.4552437
-0.87793642 1.693908 -1.4533746
-0.88290387 1.7076288 -1.4530649
-0.87618977 1.7066665 -1.4555721
-0.87746131 1.7199426 -1.4568499
-0.87746131 1.721395 -1.4530662
-0.87670934 1.7348418 -1.4543362
-0.88005078 1.7469835 -1.4594519
-0.87492228 1.7488215 -1.454664
-0.86898464 1.7629737 -1.4549954
-0.87335753 1.7780457 -1.4533914
-0.87360519 1.7918086 -1.4556695
-0.8749072 1.8068748 -1.4550307
-0.87516737 1.8225113 -1.4533954
-0.86987615 1.8221321 -1.4543834
-0.8742134 1.8370383 -1.4551477
-0.86691064 1.8368201 -1.4557158
-0.87248141 1.8524649 -1.4550641
-0.86819398 1.8524649 -1.4550641
-0.8748877 1.8686981 -1.4533961
-0.86776781 1.8686209 -1.4535975
-0.86429572 1.8835859 -1.455761
-0.86558658 1.8990597 -1.457136
-0.85902911 1.8990597 -1.457136
-0.86558658 1.9006263 -1.4530547
-0.8664543 1.9166298 -1.4535992
-0.87043411 1.9330039 -1.4537367
-0.86334658 1.9322103 -1.4558045
-0.87179124 1.9491167 -1.4551247
-0.86510229 1.9491167 -1.4551247
-0.8584134 1.9491167 -1.4551247
-0.8641879 1.9678593 -1.4502444
-0.85520935 1.9662505 -1.4544358
-0.86100096 1.9844253 -1.4516268
-0.85648125 1.9836154 -1.4537365
-0.8577705 1.9995863 -1.4572761
-0.8577705 2.0012171 -1.4530278
-0.86480427 2.0186496 -1.4533782
-0.85724437 2.018239 -1.4544475
-0.88346863 2.0371487 -1.4515796
-0.87654853 2.0371487 -1.4515796
-0.86409223 2.0364873 -1.4533024
-0.85348141 2.0363221 -1.4537331
-0.84656131 2.0354955 -1.4558866
-0.8540017 2.0541017 -1.4544541
-0.84780771 2.0538239 -1.4551768
-0.85530883 2.0724094 -1.4544568
-0.86448592 2.0921001 -1.4515272
-0.85977483 2.0912561 -1.4537263
-0.85402405 2.10867 -1.4574144
-0.86114097 2.1103702 -1.4529848
-0.85402405 2.1103702 -1.4529848
-0.85296947 2.1280451 -1.4566936
-0.84580171 2.1289015 -1.4544631
-0.85296947 2.1306138 -1.450002
-0.84580171 2.1306138 -1.450002
-0.85671246 2.1485617 -1.4537158
-0.84708649 2.1485617 -1.4537158
-0.8629334 2.1685069 -1.452957
-0.85323757 2.1685069 -1.452957
-0.84354174 2.1676383 -1.45522
-0.8423866 2.1869931 -1.4567461
-0.83506143 2.1869931 -1.4567461
-0.83547497 2.2086897 -1.4529358
-0.84002435 2.2283401 -1.4552381
-0.83506846 2.2283401 -1.4552381
-0.84131289 2.249476 -1.4544667
-0.83382344 2.2485814 -1.4567974
-0.826334 2.2485814 -1.4567974
-0.82501352 2.2709301 -1.4536831
-0.81495237 2.2709301 -1.4536831
-0.82367289 2.2927094 -1.4528875
-0.81606978 2.2918012 -1.4552536
-0.81805521 2.3132961 -1.4560529
-0.80698895 2.3139062 -1.4544635
-0.81578207 2.3372734 -1.4512583
-0.80548829 2.3363509 -1.4536607
-0.80655754 2.3582149 -1.4552665
-0.80764335 2.3794837 -1.4593371
-0.8128708 2.3813572 -1.4544568
-0.80764335 2.3813572 -1.4544568
-0.80611175 2.4048636 -1.453634
-0.79820865 2.4048638 -1.453634
-0.79393435 2.4277921 -1.4552767
-0.80029756 2.4520464 -1.4544464
-0.79494441 2.4501281 -1.459444
-0.8013671 2.4766922 -1.4536026
-0.79597068 2.4757252 -1.4561216
-0.80517399 2.4997892 -1.4578236
-0.79701346 2.4997892 -1.4578236
-0.80517399 2.501739 -1.4527446
-0.79701346 2.501739 -1.4527446
-0.79533064 2.5252304 -1.4569929
-0.78436053 2.5252304 -1.4569929
-0.77426314 2.5520835 -1.4535663
-0.76678526 2.5773857 -1.4552884
-0.76761669 2.6031132 -1.4570394
-0.76846194 2.6313093 -1.4535247
-0.76360172 2.6569128 -1.4579598
-0.75788182 2.6589627 -1.4526198
-0.75481111 2.6846809 -1.4579824
-0.75437784 2.741679 -1.4580281
-0.94869089 2.8951626 -1.4533658
-0.95366597 1.4149274 -1.4409479
-0.94316691 1.4149274 -1.4409479
-0.95417881 1.4238404 -1.4448038
-0.94462955 1.4236603 -1.445273
-0.9345147 1.4238179 -1.4448624
-0.92703861 1.4242907 -1.4436307
-0.93667585 1.4341756 -1.445241
-0.92488629 1.433753 -1.4463416
-0.92271072 1.4452275 -1.4441017
-0.91915494 1.4452275 -1.4441017
-0.92051166 1.4542624 -1.4485122
-0.91550696 1.4552872 -1.4458424
-0.90978724 1.4568245 -1.4418375
-0.91110039 1.4659705 -1.4462591
-0.9160412 1.4778053 -1.4439813
-0.92285222 1.4884665 -1.4450703
-0.92973769 1.5005536 -1.4427601
-0.93302554 1.511457 -1.4438535
-0.92751551 1.5101407 -1.4472828
-0.93265581 1.522481 -1.4449587
-0.92573017 1.5223155 -1.4453897
-0.91603422 1.5218191 -1.4466829
-0.93042475 1.5342931 -1.4443421
-0.92485332 1.5336275 -1.4460759
-0.91603184 1.5334612 -1.4465094
-0.90721059 1.5336275 -1.4460759
-0.93190342 1.5448985 -1.4472053
-0.92505574 1.5466832 -1.442556
-0.91602933 1.5465716 -1.4428467
-0.90799886 1.5459692 -1.4444158
-0.92213017 1.5589882 -1.4413337
-0.91273981 1.5576422 -1.4448403
-0.91602337 1.5684994 -1.4477379
-0.90657985 1.5678226 -1.4495013
-0.89335883 1.5684994 -1.4477381
-0.92735559 1.5705299 -1.4424481
-0.91980076 1.5705299 -1.4424481
-0.89335883 1.5705299 -1.4424481
-0.93264031 1.5835642 -1.4400284
-0.92456758 1.5823729 -1.4431316
-0.91554505 1.5822028 -1.4435749
-0.9060477 1.5822027 -1.443575
-0.8927514 1.5822028 -1.4435749
-0.9112404 1.5953784 -1.4411476
-0.90741968 1.5953784 -1.4411476
-0.89341038 1.594009 -1.4447145
-0.94339186 1.6073282 -1.4422791
-0.93570638 1.6073282 -1.4422791
-0.92417812 1.6073282 -1.4422791
-0.91521174 1.6068691 -1.4434749
-0.90112174 1.6073282 -1.4422791
-0.89631832 1.6062953 -1.4449697
-0.88959354 1.6073282 -1.4422791
-0.93340081 1.6194162 -1.4434236
-0.92489779 1.6188624 -1.4448669
-0.91794074 1.6187238 -1.4452279
-0.89475071 1.6188624 -1.4448669
-0.88702065 1.6187238 -1.4452279
-0.93106794 1.6330379 -1.4409516
-0.89219248 1.6330379 -1.4409516
-0.88733304 1.6312966 -1.4454883
-0.89481789 1.6449505 -1.4433179
-0.88862652 1.6436659 -1.4466642
-0.89406508 1.6573789 -1.4447324
-0.88698494 1.657238 -1.4450996
-0.87911808 1.6565332 -1.4469357
-0.89224797 1.6691986 -1.4481332
-0.88631284 1.6691986 -1.4481332
-0.89224797 1.6713256 -1.4425924
-0.88631284 1.6713256 -1.4425924
-0.94732839 1.6848676 -1.4419131
-0.88404047 1.6837265 -1.444886
-0.88561124 1.6968975 -1.4455866
-0.87893748 1.6971368 -1.4449635
-0.88424665 1.7095538 -1.4480501
-0.87618977 1.7095538 -1.4480503
-0.88424665 1.7117194 -1.442409
-0.87618977 1.7117194 -1.442409
-0.88286525 1.7252682 -1.4429764
-0.87644815 1.7239368 -1.4464447
-0.87670934 1.7384951 -1.4448191
-0.88005078 1.754335 -1.4403005
-0.8738966 1.7528647 -1.4441308
-0.86774242 1.7521296 -1.4460459
-0.90613842 1.7681516 -1.4415064
-0.89375383 1.7681516 -1.4415064
-0.88467181 1.7675598 -1.443048
-0.87517697 1.7666723 -1.4453604
-0.86898464 1.7659326 -1.4472874
-0.87439603 1.7813951 -1.4446659
-0.88405502 1.7978004 -1.4400604
-0.8767401 1.796677 -1.4429872
-0.8749072 1.8091359 -1.4491403
-0.88121665 1.8121507 -1.4412866
-0.87560827 1.8111458 -1.4439044
-0.92278826 1.826683 -1.442528
-0.91432238 1.826683 -1.442528
-0.90585637 1.826683 -1.442528
-0.88469154 1.826683 -1.442528
-0.87693113 1.8256717 -1.4451624
-0.91377062 1.8398734 -1.4477618
-0.88395059 1.8398734 -1.4477618
-0.87543058 1.8398734 -1.4477619
-0.91377062 1.8414001 -1.4437847
-0.90738058 1.8414001 -1.4437847
-0.88608062 1.8414001 -1.4437847
-0.87543058 1.8414001 -1.4437847
-0.88427162 1.8574584 -1.4420555
-0.87505376 1.8559988 -1.445858
-0.89322698 1.8729507 -1.4423177
-0.88459671 1.8729507 -1.4423177
-0.8752473 1.8724352 -1.4436606
-0.86733633 1.8721775 -1.444332
-0.90338451 1.8874772 -1.4456242
-0.89686966 1.8882554 -1.4435968
-0.88601172 1.8874772 -1.4456242
-0.87515372 1.887477 -1.4456242
-0.8664673 1.8874772 -1.4456242
-0.9027456 1.904543 -1.4428515
-0.89618814 1.9053264 -1.4408109
-0.88525903 1.9043863 -1.4432596
-0.87389266 1.9040731 -1.4440758
-0.86667949 1.903368 -1.4459126
-0.86909461 1.9194684 -1.4462043
-0.86909461 1.9210454 -1.4420961
-0.87264895 1.9361789 -1.4454658
-0.88070983 1.953112 -1.4447169
-0.87402087 1.9531116 -1.4447169
-0.86510229 1.9531118 -1.4447169
-0.8584134 1.9523128 -1.4467986
-0.8641879 1.9694681 -1.4460533
-0.857454 1.9694681 -1.4460533
-0.87541115 1.971077 -1.4418622
-0.86643255 1.971077 -1.4418622
-0.85969865 1.971077 -1.4418622
-0.86326081 1.9868549 -1.4452975
-0.85648125 1.9868548 -1.4452975
-0.93285382 2.0061095 -1.4402831
-0.92602807 2.0061095 -1.4402831
-0.91237658 2.0061095 -1.4402831
-0.87142199 2.0061095 -1.4402831
-0.86459625 2.0044787 -1.4445312
-0.89344013 2.0231647 -1.4416152
-0.88427663 2.0231647 -1.4416152
-0.87511313 2.021523 -1.4458926
-0.86594963 2.021523 -1.4458926
-0.89500213 2.0388021 -1.4472727
-0.88577533 2.0388021 -1.4472727
-0.87654853 2.0388021 -1.4472727
-0.86501497 2.0388021 -1.4472727
-0.85348141 2.0388021 -1.4472727
-0.89500213 2.0404553 -1.4429657
-0.88577533 2.0404553 -1.4429657
-0.87654853 2.0404553 -1.4429657
-0.86501497 2.0404553 -1.4429659
-0.85578811 2.0404553 -1.4429657
-0.8965857 2.0571537 -1.4465029
-0.88961738 2.0579863 -1.4443345
-0.8756808 2.0579863 -1.4443345
-0.86406696 2.0579863 -1.4443345
-0.85477591 2.0571537 -1.4465029
-0.88181788 2.0774386 -1.4413548
-0.8748008 2.0774386 -1.4413548
-0.86466497 2.0768797 -1.4428105
-0.85842752 2.0757623 -1.4457221
-0.8856858 2.0954769 -1.4427309
-0.87626362 2.0954769 -1.4427309
-0.86684144 2.0946326 -1.44493
-0.85820442 2.0943515 -1.445663
-0.86114097 2.1129208 -1.4463408
-0.85402411 2.1129208 -1.4463408
-0.87447292 2.1340389 -1.4410797
-0.86491585 2.1331825 -1.4433103
-0.85774803 2.1331825 -1.4433103
-0.95056576 2.1528738 -1.4424825
-0.8759644 2.1528738 -1.4424825
-0.86633843 2.1520114 -1.4447291
-0.85671246 2.1511488 -1.4469759
-0.84708643 2.1511488 -1.4469759
-0.88474917 2.1719816 -1.4439051
-0.8740837 2.1712866 -1.4457155
-0.8629334 2.171113 -1.4461681
-0.85323751 2.171113 -1.4461681
-0.84354174 2.171113 -1.4461681
-0.871687 2.1896183 -1.4499074
-0.86680359 2.1896183 -1.4499074
-0.84482831 2.1896183 -1.4499074
-0.83506149 2.1896183 -1.4499074
-0.94737971 2.1931183 -1.4407895
-0.8733148 2.1925352 -1.442309
-0.86436188 2.1922433 -1.443069
-0.85215342 2.1931183 -1.4407895
-0.84482837 2.1922433 -1.443069
-0.83587533 2.1919518 -1.4438289
-0.84613359 2.2119219 -1.4445162
-0.83875453 2.2119217 -1.4445161
-0.85489202 2.23278 -1.4436712
-0.84398907 2.2320695 -1.445522
-0.83506846 2.231004 -1.448298
-0.87376708 2.254844 -1.4404826
-0.86253291 2.2535019 -1.4439787
-0.85329592 2.2534125 -1.4442117
-0.84380937 2.2530546 -1.4451441
-0.83382344 2.2530546 -1.4451441
-0.826334 2.2530546 -1.4451441
-0.82417512 2.2748363 -1.4435077
-0.81495237 2.2736342 -1.4466386
-0.82620728 2.295434 -1.4457893
-0.81860417 2.295434 -1.4457893
-0.83508033 2.3193972 -1.4401586
-0.82656783 2.3187869 -1.441748
-0.81720394 2.3175669 -1.4449269
-0.8064782 2.3172009 -1.4458807
-0.83122271 2.3391178 -1.4464532
-0.82350242 2.3391178 -1.4464532
-0.81578207 2.3391178 -1.4464532
-0.80548829 2.3391178 -1.4464532
-0.84151649 2.3409622 -1.4416482
-0.83379614 2.3409622 -1.4416482
-0.82350242 2.3409622 -1.4416482
-0.81320858 2.3409622 -1.4416482
-0.80548829 2.3409622 -1.4416482
-0.83249187 2.3628621 -1.4431607
-0.82471156 2.3628621 -1.4431607
-0.81174439 2.3628621 -1.4431607
-0.80655754 2.3610032 -1.4480029
-0.8285532 2.3851037 -1.4446963
-0.8128708 2.3841672 -1.4471364
-0.80764335 2.3841672 -1.4471364
-0.81401479 2.409584 -1.4413371
-0.80611169 2.4086399 -1.4437964
-0.79557431 2.4086399 -1.4437965
-0.79658961 2.4315984 -1.445361
-0.80029756 2.4558833 -1.4444512
-0.79494441 2.4539647 -1.4494488
-0.80676353 2.479593 -1.4460456
-0.81215996 2.4815269 -1.4410076
-0.80676353 2.4815269 -1.4410076
-0.81333458 2.5036886 -1.4476656
-0.80517399 2.5046635 -1.4451261
-0.79701346 2.5046635 -1.4451261
-0.79533064 2.5281789 -1.4493117
-0.78436053 2.5281789 -1.4493117
-0.79533064 2.5301447 -1.444191
-0.78436053 2.5301447 -1.444191
-0.776133 2.5301447 -1.444191
-0.77426314 2.5560474 -1.4432399
-0.76596743 2.5560474 -1.4432399
-0.77236187 2.5813828 -1.444876
-0.76678526 2.5813828 -1.444876
-0.76761669 2.6071439 -1.4465392
-0.77413327 2.6353741 -1.4429355
-0.76562631 2.6353741 -1.4429355
-0.75711936 2.6363902 -1.4402882
-0.93519759 2.6630623 -1.4419398
-0.75597525 2.662379 -1.4437199
-0.94327348 2.6881268 -1.4490056
-0.75362653 2.7177982 -1.4453284
-0.94005251 2.8655295 -1.4486527
-0.93396801 2.8666198 -1.4458125
-0.94562072 2.8984635 -1.444767
-0.93616748 1.4174356 -1.4344134
-0.94462955 1.4274426 -1.4354192
-0.934075 1.4276227 -1.4349501
-0.92703861 1.428073 -1.4337771
-0.93196005 1.4381893 -1.4347849
-0.92488641 1.4375556 -1.4364359
-0.92271078 1.4477758 -1.4374626
-0.91737711 1.448413 -1.4358029
-0.90848786 1.4490502 -1.4341431
-0.91626334 1.454215 -1.4346617
-0.90978724 1.4587462 -1.4368315
-0.91110039 1.4685465 -1.4395484
-0.90978724 1.4606678 -1.4318254
-0.91469449 1.4711225 -1.4328377
-0.91965473 1.4803952 -1.4372342
-0.93193537 1.4936748 -1.4315023
-0.92466885 1.4910706 -1.4382863
-0.93339086 1.5031719 -1.4359392
-0.93210715 1.5150771 -1.4344227
-0.933887 1.5264521 -1.4346136
-0.92896217 1.5257902 -1.4363378
-0.93413895 1.5376208 -1.4356732
-0.92671049 1.5382863 -1.4339395
-0.91804379 1.5367333 -1.4379849
-0.90813911 1.5369552 -1.437407
-0.93377095 1.5489142 -1.4367442
-0.92443323 1.5489143 -1.4367442
-0.91509557 1.5489142 -1.4367442
-0.94497621 1.5502527 -1.4332573
-0.93563849 1.5502526 -1.4332575
-0.92443323 1.5502526 -1.4332575
-0.91322798 1.5502527 -1.4332573
-0.94748408 1.562017 -1.4334438
-0.92588633 1.562129 -1.4331514
-0.918374 1.5610074 -1.4360738
-0.95379752 1.5745912 -1.4318687
-0.94435394 1.5745912 -1.4318687
-0.9339661 1.5742527 -1.4327503
-0.92609644 1.5723349 -1.4377462
-0.89335889 1.5732374 -1.4353952
-0.94403714 1.586287 -1.4329352
-0.93390661 1.5858332 -1.4341173
-0.92504245 1.5856062 -1.4347086
-0.91554505 1.5856063 -1.4347085
-0.90699744 1.585266 -1.435595
-0.89541066 1.5854702 -1.4350631
-0.94639099 1.5986645 -1.4325869
-0.9341647 1.5972039 -1.4363915
-0.92524964 1.5972041 -1.4363915
-0.91760826 1.5972041 -1.4363915
-0.90550935 1.5974321 -1.4357971
-0.89786792 1.5974321 -1.4357971
-0.94531322 1.6087053 -1.4386916
-0.93570638 1.6087052 -1.4386916
-0.92609954 1.6087053 -1.4386916
-0.90496451 1.6087052 -1.4386916
-0.89727902 1.6087053 -1.4386916
-0.88959354 1.6087053 -1.4386916
-0.95235825 1.6110004 -1.4327126
-0.94595367 1.6105413 -1.4339083
-0.93666708 1.6104267 -1.4342072
-0.90573299 1.6106333 -1.4336691
-0.89727902 1.6107709 -1.4333104
-0.95272583 1.622879 -1.4344029
-0.94499576 1.6223596 -1.435756
-0.93533325 1.6221865 -1.4362072
-0.9256708 1.6220133 -1.436658
-0.91562164 1.6227405 -1.4347637
-0.90479964 1.6224635 -1.4354852
-0.89475071 1.6221867 -1.4362071
-0.88702065 1.6214939 -1.4380112
-0.95283824 1.6363815 -1.4322412
-0.94467431 1.6358243 -1.4336929
-0.9349556 1.6358243 -1.4336929
-0.9248479 1.6361029 -1.4329671
-0.91163021 1.6372175 -1.4300637
-0.90515095 1.6367531 -1.4312735
-0.89685756 1.6349884 -1.4358708
-0.91436958 1.6491547 -1.4323659
-0.90475667 1.6483955 -1.4343433
-0.89612132 1.6472861 -1.4372334
-0.9027186 1.6593525 -1.4395913
-0.89485174 1.6593527 -1.4395913
-0.93615258 1.6621717 -1.4322469
-0.9105854 1.6614668 -1.434083
-0.89485174 1.6614667 -1.434083
-0.94566417 1.6741614 -1.4352045
-0.9377507 1.6741614 -1.4352045
-0.89356691 1.6743978 -1.4345888
-0.88631284 1.6741614 -1.4352045
-0.94931859 1.6862941 -1.4381971
-0.90155411 1.689147 -1.4307652
-0.89458847 1.6880772 -1.4335521
-0.88762283 1.6877207 -1.4344811
-0.88694602 1.6992892 -1.4393559
-0.89695668 1.7014416 -1.4337485
-0.88694602 1.7014418 -1.4337485
-0.95273054 1.7153286 -1.4330068
-0.94870204 1.7153286 -1.4330068
-0.9124459 1.7153286 -1.4330068
-0.90237474 1.7153286 -1.4330068
-0.89230365 1.7153286 -1.4330068
-0.88505238 1.7144623 -1.4352633
-0.88475668 1.7280762 -1.435661
-0.87746131 1.727931 -1.4360394
-0.89367312 1.7301097 -1.4303638
-0.88556719 1.7301097 -1.4303638
-0.87746131 1.7301097 -1.4303638
-0.88282591 1.7436098 -1.431495
-0.87711716 1.7418562 -1.4360632
-0.89441061 1.7572757 -1.4326398
-0.88620496 1.7558054 -1.4364702
-0.90613842 1.769631 -1.4376523
-0.89375383 1.769631 -1.4376523
-0.88549739 1.769631 -1.4376522
-0.87724108 1.769631 -1.4376523
-0.9143948 1.7711105 -1.4337984
-0.90407431 1.7711105 -1.4337984
-0.89581794 1.7711105 -1.4337984
-0.88549739 1.7711105 -1.4337984
-0.87724108 1.7711105 -1.4337984
-0.91178107 1.7866054 -1.4310929
-0.90555024 1.785861 -1.4330318
-0.89464629 1.7853029 -1.4344862
-0.8847807 1.7851168 -1.4349709
-0.87647295 1.7843724 -1.4369099
-0.90077472 1.7992984 -1.4361581
-0.89241487 1.7992984 -1.4361581
-0.886145 1.7992984 -1.4361581
-0.87778509 1.7992984 -1.4361581
-0.90077472 1.8007963 -1.4322557
-0.89241487 1.8007963 -1.4322557
-0.886145 1.8007963 -1.4322557
-0.87987506 1.8007963 -1.4322557
-0.94641399 1.8151655 -1.4334326
-0.89383548 1.8151655 -1.4334326
-0.8862642 1.8142611 -1.4357888
-0.87701035 1.8136581 -1.4373596
-0.92490476 1.8289584 -1.4366002
-0.91432238 1.8289584 -1.4366002
-0.90373993 1.8282 -1.4385761
-0.89442742 1.8288066 -1.4369954
-0.88539702 1.8287057 -1.4372588
-0.92490482 1.8312339 -1.4306723
-0.91432238 1.8312339 -1.4306724
-0.91377062 1.8444533 -1.4358307
-0.90525055 1.8444533 -1.4358306
-0.89460057 1.8444533 -1.4358307
-0.88650656 1.844148 -1.4366262
-0.87827063 1.8434356 -1.4384822
-0.89820564 1.8593791 -1.4370522
-0.88534355 1.8593792 -1.4370522
-0.87462509 1.8593791 -1.4370522
-0.90463674 1.8609155 -1.4330497
-0.89606196 1.8609155 -1.4330497
-0.90401471 1.8760434 -1.4342608
-0.89106941 1.8744971 -1.4382893
-0.88675427 1.8752702 -1.436275
-0.91424245 1.8898118 -1.4395421
-0.90555602 1.8898119 -1.4395422
-0.89469802 1.8898118 -1.4395421
-0.88601172 1.8898118 -1.4395421
-0.87298214 1.8898118 -1.4395421
-0.91858566 1.8921463 -1.4334601
-0.90555614 1.8921465 -1.4334602
-0.89252645 1.8913682 -1.4354875
-0.88601172 1.8913682 -1.4354875
-0.87515372 1.8913682 -1.4354875
-0.91148889 1.9084597 -1.4326483
-0.90493143 1.9076762 -1.4346889
-0.89618814 1.9076763 -1.4346889
-0.88525909 1.9076763 -1.4346889
-0.87432986 1.9076762 -1.4346889
-0.8677724 1.9076763 -1.4346889
-0.88449627 1.9241993 -1.4338797
-0.87496191 1.9236736 -1.4352492
-0.8792935 1.93856 -1.4392625
-0.89258254 1.9401475 -1.435127
-0.88519973 1.9406767 -1.4337486
-0.8792935 1.9409413 -1.4330593
-0.88516909 1.9571071 -1.4343091
-0.87476414 1.9568406 -1.4350029
-0.86510229 1.956308 -1.4363906
-0.91357011 1.9742945 -1.43348
-0.9045915 1.9742945 -1.4334799
-0.89262009 1.9737583 -1.434877
-0.88438964 1.9734902 -1.4355757
-0.87541115 1.9734902 -1.4355757
-0.86643255 1.9734902 -1.4355757
-0.87004036 1.9892844 -1.4389683
-0.86326081 1.9892844 -1.4389683
-0.93557584 1.9925239 -1.4305294
-0.92653644 1.9909041 -1.4347488
-0.91433334 1.991552 -1.433061
-0.90393806 1.991714 -1.4326391
-0.895652 1.991984 -1.4319358
-0.88585925 1.9925239 -1.4305294
-0.87456 1.991876 -1.4322172
-0.86552066 1.9909041 -1.4347488
-0.93512911 2.0093708 -1.4317865
-0.92375278 2.0085554 -1.4339106
-0.9138934 2.0088272 -1.4332026
-0.90479237 2.0088272 -1.4332026
-0.89569139 2.0088272 -1.4332026
-0.88507348 2.0077403 -1.4360347
-0.87597251 2.0077403 -1.4360347
-0.94383931 2.0248067 -1.4373378
-0.93391222 2.0253541 -1.435912
-0.92551237 2.0256279 -1.4351991
-0.91634881 2.0264487 -1.4330604
-0.90374911 2.0260382 -1.4341297
-0.89573103 2.0256276 -1.435199
-0.92037594 2.0454154 -1.4300447
-0.91345578 2.0445886 -1.4321982
-0.9037677 2.0440927 -1.4334903
-0.89730889 2.043762 -1.4343516
-0.88346863 2.0437622 -1.4343517
-0.87654853 2.0437622 -1.4343516
-0.86501497 2.0425222 -1.437582
-0.85578811 2.0421088 -1.4386587
-0.8965857 2.0596509 -1.4399974
-0.87335801 2.0596509 -1.4399974
-0.86406696 2.0596509 -1.4399974
-0.8570987 2.0596509 -1.4399974
-0.92213601 2.0629807 -1.4313235
-0.90355396 2.0629807 -1.4313235
-0.8965857 2.0621481 -1.4334919
-0.8849718 2.0623145 -1.4330584
-0.87335801 2.0613158 -1.4356605
-0.86406696 2.0613158 -1.4356605
-0.90520829 2.0791152 -1.4369874
-0.88415694 2.0791152 -1.4369874
-0.8748008 2.0791152 -1.4369874
-0.86778367 2.0791152 -1.4369874
-0.94497192 2.0807915 -1.43262
-0.89351308 2.0807915 -1.43262
-0.88649601 2.0807915 -1.43262
-0.94928563 2.0980091 -1.4361335
-0.91630793 2.0988533 -1.4339345
-0.90217465 2.0988533 -1.4339345
-0.89432287 2.0982904 -1.4354005
-0.8856858 2.0980091 -1.4361334
-0.87626362 2.0980091 -1.4361335
-0.8668415 2.0980091 -1.4361334
-0.85977483 2.0980091 -1.4361335
-0.94417113 2.1180215 -1.4330523
-0.93468189 2.1180215 -1.4330523
-0.92519277 2.1180215 -1.4330523
-0.91570365 2.1188717 -1.4308376
-0.9054237 2.118305 -1.432314
-0.89593458 2.118305 -1.432314
-0.88486385 2.1180215 -1.4330524
-0.87347686 2.1168313 -1.4361529
-0.86430401 2.1160381 -1.43822
-0.85402405 2.1154711 -1.4396966
-0.9469474 2.136322 -1.4351315
-0.93659389 2.1366074 -1.434388
-0.92783332 2.136893 -1.4336444
-0.88402998 2.1374638 -1.4321574
-0.87526935 2.136322 -1.4351315
-0.8673051 2.1357512 -1.4366186
-0.95217007 2.1557484 -1.4349937
-0.9457528 2.1563234 -1.4334959
-0.93372035 2.1563234 -1.4334959
-0.88559043 2.1563234 -1.4334959
-0.8759644 2.1545985 -1.4379892
-0.9445405 2.1748772 -1.4363619
-0.93565261 2.1754563 -1.4348533
-0.92595673 2.1763248 -1.4325904
-0.89444506 2.1763248 -1.4325904
-0.88717318 2.1754563 -1.4348532
-0.87565929 2.1752391 -1.4354191
-0.85202557 2.1750219 -1.4359848
-0.84596568 2.1745877 -1.4371163
-0.944938 2.1957436 -1.4339508
-0.93272954 2.1966186 -1.4316713
-0.8741287 2.1957436 -1.4339508
-0.86436188 2.1957436 -1.4339508
-0.85459512 2.1957436 -1.4339508
-0.84727001 2.1957436 -1.4339508
-0.94452119 2.2154477 -1.4353307
-0.93714213 2.2163291 -1.4330344
-0.8633514 2.2163291 -1.4330344
-0.85597241 2.2154477 -1.4353306
-0.84613359 2.2145662 -1.4376271
-0.94657612 2.2354441 -1.4367311
-0.88958329 2.2363322 -1.4344177
-0.87719357 2.2363322 -1.4344177
-0.86728168 2.2354441 -1.4367311
-0.8598479 2.2354441 -1.4367311
-0.84993613 2.2345562 -1.4390446
-0.94117194 2.2584226 -1.43116
-0.9336825 2.2584226 -1.43116
-0.92369664 2.2584226 -1.43116
-0.91287851 2.2578261 -1.4327139
-0.90372479 2.2575278 -1.4334906
-0.89373887 2.2575278 -1.4334906
-0.88375294 2.2575278 -1.4334908
-0.87376708 2.2575278 -1.4334908
-0.86378115 2.2575278 -1.4334906
-0.85379523 2.2575281 -1.4334906
-0.84380937 2.2575278 -1.4334906
-0.83382344 2.2575278 -1.4334908
-0.82466966 2.2572296 -1.4342675
-0.95329309 2.2781413 -1.4348974
-0.94574726 2.2790427 -1.4325492
-0.93820137 2.2790427 -1.4325492
-0.92562497 2.2790427 -1.4325492
-0.91556382 2.2790427 -1.4325492
-0.90550268 2.2790427 -1.4325492
-0.89544153 2.2790427 -1.4325492
-0.88538039 2.2790427 -1.4325492
-0.87531924 2.2790427 -1.4325492
-0.8660965 2.2784417 -1.4341148
-0.85268164 2.2790427 -1.4325492
-0.84597421 2.2784417 -1.4341148
-0.8342362 2.2784417 -1.4341148
-0.82752883 2.2781413 -1.4348974
-0.83381039 2.2999754 -1.4339592
-0.82620728 2.299067 -1.4363253
-0.81860417 2.2981589 -1.4386913
-0.93552828 2.322448 -1.4322115
-0.92701578 2.3230581 -1.4306221
-0.85295665 2.3230581 -1.4306221
-0.84274161 2.3230581 -1.4306221
-0.83508033 2.3212276 -1.4353904
-0.8299728 2.3212276 -1.4353904
-0.80443519 2.3212276 -1.4353904
-0.94702774 2.3446512 -1.4320381
-0.93673396 2.3446512 -1.4320381
-0.91357297 2.3446512 -1.4320381
-0.89813226 2.3446512 -1.4320381
-0.87754476 2.3446512 -1.4320381
-0.86210406 2.3446512 -1.4320381
-0.85352588 2.3440363 -1.4336399
-0.84408998 2.343729 -1.4344406
-0.83379614 2.343729 -1.4344406
-0.82350242 2.3428068 -1.4368432
-0.81235075 2.3434217 -1.4352413
-0.80548829 2.3428068 -1.4368432
-0.9517898 2.3647208 -1.4383183
-0.89473426 2.3665795 -1.433476
-0.86361307 2.3665795 -1.433476
-0.85583282 2.3656502 -1.4358971
-0.84545898 2.3656502 -1.4358971
-0.83508527 2.3656502 -1.4358971
-0.82557607 2.3653405 -1.4367042
-0.8134734 2.3659599 -1.4350901
-0.8285532 2.3879137 -1.4373759
-0.8128708 2.3879137 -1.4373759
-0.80764335 2.3879137 -1.4373759
-0.92787504 2.3907239 -1.4300556
-0.91219264 2.3907239 -1.4300556
-0.90435147 2.3907239 -1.4300556
-0.83639443 2.3907239 -1.4300556
-0.8285532 2.3907239 -1.4300556
-0.81548452 2.3907239 -1.4300556
-0.88777661 2.4133604 -1.4314996
-0.84035832 2.4133604 -1.4314996
-0.83508962 2.4124162 -1.433959
-0.81577104 2.4127309 -1.4331392
-0.80611175 2.4124162 -1.433959
-0.79645246 2.4121015 -1.4347788
-0.8417297 2.4363563 -1.4329664
-0.79747468 2.4350874 -1.4362715
-0.88327157 2.4597199 -1.434456
-0.81100392 2.4597199 -1.434456
-0.8029741 2.4587607 -1.4369547
-0.82295275 2.4853947 -1.4309317
-0.8139587 2.48475 -1.432611
-0.80676353 2.4853947 -1.4309317
-0.81333458 2.5095375 -1.4324285
-0.80517399 2.5085626 -1.434968
-0.79701346 2.5085626 -1.434968
-0.79533064 2.5321105 -1.4390702
-0.78436053 2.5330932 -1.4365098
-0.776133 2.5330932 -1.4365098
-0.77426314 2.55902 -1.4354954
-0.77426314 2.561002 -1.4303322
-0.77236187 2.5853796 -1.4344635
-0.76678526 2.5853796 -1.4344635
-0.776052 2.6121821 -1.4334141
-0.76761669 2.6101668 -1.4386642
-0.76562631 2.6384227 -1.4349935
-0.75711936 2.6384227 -1.4349935
-0.92757112 2.6664786 -1.43304
-0.91613132 2.6664786 -1.43304
-0.90659827 2.6671619 -1.43126
-0.75502193 2.666137 -1.4339299
-0.9230811 2.6943293 -1.4328475
-0.75481111 2.69364 -1.4346428
-0.75362653 2.7198839 -1.4398954
-0.75362653 2.7219694 -1.4344623
-0.92788351 2.8698905 -1.437292
-0.92484128 2.872071 -1.4316117
-0.94562072 2.9028645 -1.4333019
-0.93333995 2.9006639 -1.4390345
-0.93269986 2.9342279 -1.4350233
-0.94462949 1.4299644 -1.4288505
-0.93407494 1.4299644 -1.4288505
-0.94814765 1.4312251 -1.425566
-0.93407494 1.4315403 -1.4247448
-0.92703861 1.4324858 -1.4222814
-0.9244442 1.4411995 -1.4269428
-0.91781265 1.4419918 -1.4248791
-0.91458338 1.452691 -1.4246587
-0.90848786 1.4522357 -1.4258442
-0.91336203 1.4632301 -1.4251505
-0.90978724 1.461949 -1.428488
-0.91828859 1.4743426 -1.4244493
-0.92507511 1.4855752 -1.4237399
-0.93193537 1.4969299 -1.4230225
-0.93339086 1.5057902 -1.4291179
-0.92973769 1.5077541 -1.4240021
-0.93302548 1.5186973 -1.4249921
-0.93634951 1.5290995 -1.427717
-0.94189006 1.531085 -1.4225445
-0.93634951 1.5304232 -1.4242686
-0.95271033 1.542945 -1.421803
-0.9440437 1.5407265 -1.4275823
-0.93599617 1.5402828 -1.4287381
-0.9351716 1.5527624 -1.4267191
-0.92496681 1.5525472 -1.4272796
-0.94466692 1.5643725 -1.4273071
-0.93527663 1.5643725 -1.4273071
-0.92964244 1.5643725 -1.4273071
-0.95379752 1.5759448 -1.4283422
-0.94435394 1.5759448 -1.4283421
-0.93491048 1.5759448 -1.4283422
-0.94403714 1.5876484 -1.4293885
-0.93643922 1.5876484 -1.4293885
-0.92884135 1.5876484 -1.4293885
-0.89655036 1.5876484 -1.4293885
-0.95326829 1.6015399 -1.4250963
-0.94944757 1.6008552 -1.4268798
-0.90688586 1.6128366 -1.4279292
-0.94886082 1.6256492 -1.4271863
-0.92180574 1.6249566 -1.4289904
-0.91214323 1.6263417 -1.4253821
-0.90441316 1.6256492 -1.4271863
-0.89861566 1.6249566 -1.4289904
-0.94467437 1.6386106 -1.4264343
-0.93495554 1.6386105 -1.4264342
-0.92523664 1.6386106 -1.4264343
-0.91357398 1.6386106 -1.4264343
-0.94467437 1.6400038 -1.422805
-0.93495554 1.6400038 -1.422805
-0.92523664 1.6400038 -1.422805
-0.91551775 1.6400038 -1.422805
-0.94565243 1.6533586 -1.421414
-0.93652827 1.6524243 -1.4238478
-0.92479724 1.6519572 -1.4250647
-0.9150213 1.6517237 -1.4256731
-0.90524548 1.6517236 -1.4256731
-0.89742476 1.6517236 -1.4256731
-0.94598609 1.6649909 -1.4249026
-0.93025249 1.6635814 -1.4285748
-0.92435235 1.664991 -1.4249026
-0.91451877 1.6649911 -1.4249026
-0.90468526 1.664991 -1.4249026
-0.89616293 1.6645212 -1.4261266
-0.94605982 1.67799 -1.4252307
-0.93814629 1.6777065 -1.4259696
-0.92390203 1.6791244 -1.4222755
-0.91401017 1.6791244 -1.4222755
-0.90345877 1.6781791 -1.4247383
-0.89422637 1.6769975 -1.4278166
-0.92145598 1.6919999 -1.4233332
-0.91548538 1.6919999 -1.4233332
-0.90354431 1.6912867 -1.4251912
-0.89757377 1.6912867 -1.4251912
-0.88563263 1.6912867 -1.4251912
-0.93299514 1.7050292 -1.4244027
-0.92498654 1.7057469 -1.4225335
-0.91497588 1.7052684 -1.4237796
-0.90429783 1.7040726 -1.426895
-0.89395344 1.703953 -1.4272064
-0.88694602 1.7035942 -1.428141
-0.94333076 1.7177347 -1.4267387
-0.93560952 1.7185767 -1.4245448
-0.92318851 1.7191782 -1.4229778
-0.91446018 1.7182158 -1.425485
-0.90438896 1.7182159 -1.4254851
-0.89431787 1.7182158 -1.425485
-0.88693237 1.7172533 -1.4279923
-0.91596425 1.7330146 -1.4227962
-0.90481871 1.7326515 -1.4237422
-0.89569962 1.7322884 -1.4246881
-0.88556719 1.7322884 -1.424688
-0.87746131 1.7315621 -1.42658
-0.94603056 1.7479937 -1.4200742
-0.93583626 1.7479938 -1.4200741
-0.92564201 1.7479937 -1.4200742
-0.91646713 1.7472631 -1.4219776
-0.90593308 1.7470194 -1.4226122
-0.89607853 1.7454364 -1.4267364
-0.88690364 1.7450712 -1.4276881
-0.91697603 1.7587459 -1.4288095
-0.90671897 1.7587459 -1.4288095
-0.89441061 1.7587459 -1.4288095
-0.94774699 1.7616866 -1.4211489
-0.93543863 1.7616866 -1.4211489
-0.92436105 1.7610983 -1.422681
-0.91424084 1.7607063 -1.4237024
-0.90466762 1.7602162 -1.4249792
-0.94329214 1.7755487 -1.4222364
-0.93400365 1.7751788 -1.4231999
-0.92430246 1.7743652 -1.4253197
-0.91387868 1.7742543 -1.4256086
-0.90476233 1.7730831 -1.4286598
-0.89581794 1.7725899 -1.4299444
-0.94501227 1.7895826 -1.423337
-0.93462753 1.7888381 -1.4252759
-0.92424279 1.7889869 -1.424888
-0.91385806 1.7888381 -1.4252759
-0.90555024 1.7888383 -1.4252758
-0.8951655 1.7888383 -1.4252758
-0.944664 1.8022943 -1.4283534
-0.93316913 1.8037922 -1.4244511
-0.92446107 1.8047909 -1.4218496
-0.90286469 1.8022943 -1.4283534
-0.89450485 1.8022943 -1.4283534
-0.88823491 1.8022943 -1.4283534
-0.94551265 1.8179651 -1.4261398
-0.93337071 1.8335093 -1.4247447
-0.92490482 1.8335094 -1.4247447
-0.91432238 1.8335093 -1.4247447
-0.9329406 1.8490334 -1.4238995
-0.9244206 1.8490334 -1.4238995
-0.91519064 1.8485245 -1.4252253
-0.90610254 1.8481172 -1.4262857
-0.8967306 1.8475066 -1.4278766
-0.88821059 1.8475066 -1.4278766
-0.94965416 1.8655249 -1.4210417
-0.91449767 1.8649104 -1.4226429
-0.90506542 1.8636811 -1.4258449
-0.89820564 1.8624519 -1.429047
-0.90832984 1.8791363 -1.4262037
-0.92559028 1.8806826 -1.4221753
-0.90832984 1.8806827 -1.4221753
-0.9403016 1.8960376 -1.4233233
-0.93378687 1.8960376 -1.4233233
-0.92510045 1.8952594 -1.4253505
-0.91641402 1.8952594 -1.4253507
-0.90845156 1.895 -1.4260263
-0.94427627 1.9123763 -1.4224451
-0.93626159 1.9126374 -1.4217649
-0.92351091 1.9127679 -1.4214247
-0.91323757 1.9119062 -1.4236695
-0.90536863 1.9112797 -1.4253019
-0.8961882 1.911593 -1.4244857
-0.88650811 1.9113693 -1.4250687
-0.87432986 1.9100263 -1.4285669
-0.94610298 1.9289304 -1.421555
-0.93510181 1.9285361 -1.422582
-0.92410058 1.9289304 -1.421555
-0.91456622 1.9284047 -1.4229244
-0.90693873 1.9276688 -1.4248416
-0.8954975 1.928142 -1.4236091
-0.88449627 1.9273534 -1.4256632
-0.87789553 1.9257764 -1.4297715
-0.943524 1.9449099 -1.4227207
-0.92506695 1.9443808 -1.4240993
-0.91384506 1.9442749 -1.4243748
-0.90365678 1.9441161 -1.4247884
-0.89479738 1.9441161 -1.4247884
-0.88815284 1.9441161 -1.4247885
-0.92084342 1.9595041 -1.4280646
-0.91415453 1.9595041 -1.4280646
-0.90523589 1.9595041 -1.4280646
-0.89631736 1.9595041 -1.4280646
-0.88962841 1.9595041 -1.4280646
-0.94759917 1.9611022 -1.4239014
-0.93422133 1.9611022 -1.4239014
-0.92530274 1.9611021 -1.4239014
-0.91415453 1.9611022 -1.4239014
-0.94499511 1.979121 -1.4209067
-0.93377185 1.9783165 -1.4230022
-0.92554158 1.9764396 -1.4278917
-0.91581476 1.9759034 -1.4292889
-0.9045915 1.9759034 -1.4292889
-0.89411658 1.9764396 -1.4278917
-0.88438964 1.9767078 -1.4271933
-0.87615937 1.9764396 -1.4278917
-0.8686772 1.9767078 -1.4271933
-0.94461524 1.9957633 -1.4220903
-0.93632913 1.9946834 -1.4249033
-0.92653644 1.9941436 -1.4263098
-0.91071755 1.9941436 -1.4263098
-0.9016782 1.9941436 -1.4263098
-0.8926388 1.9941436 -1.4263098
-0.94650531 2.011817 -1.4254141
-0.93512911 2.0126324 -1.4232899
-0.91237658 2.0110016 -1.4275382
-0.90555084 2.0110016 -1.4275382
-0.89872503 2.0110016 -1.4275382
-0.94460297 2.0291853 -1.4259313
-0.93467581 2.0289116 -1.4266441
-0.92551231 2.0289116 -1.4266442
-0.91634887 2.0289116 -1.4266441
-0.90489453 2.0280907 -1.4287829
-0.94383931 2.0313747 -1.420228
-0.93467581 2.0313747 -1.420228
-0.92551231 2.0313747 -1.420228
-0.91863972 2.0313747 -1.420228
-0.9457497 2.0478952 -1.4235841
-0.93652284 2.0478952 -1.4235841
-0.92498934 2.0480607 -1.4231534
-0.91268688 2.0476196 -1.424302
-0.90422899 2.0478952 -1.423584
-0.89730889 2.0470686 -1.4257376
-0.87885523 2.0470686 -1.4257376
-0.94071811 2.0646453 -1.4269865
-0.93142706 2.0663102 -1.4226496
-0.92445874 2.0654778 -1.424818
-0.91749048 2.0663102 -1.4226496
-0.90355396 2.0654778 -1.424818
-0.89581138 2.0657551 -1.4240952
-0.88729465 2.0646453 -1.4269865
-0.93561578 2.0833063 -1.426069
-0.92703933 2.0835857 -1.4253411
-0.9169035 2.0841446 -1.4238853
-0.90427268 2.0831387 -1.4265058
-0.89351308 2.082468 -1.4282527
-0.94457453 2.1005418 -1.4295363
-0.93515229 2.1005418 -1.4295363
-0.92337453 2.1005418 -1.4295363
-0.91316718 2.1011047 -1.4280702
-0.90453017 2.1013861 -1.4273372
-0.89432281 2.1011047 -1.4280702
-0.8856858 2.1005418 -1.4295363
-0.87626362 2.1005418 -1.4295363
-0.91491288 2.1211388 -1.4249316
-0.90621448 2.1214223 -1.4241935
-0.8967253 2.1214223 -1.4241935
-0.88581276 2.1212523 -1.4246364
-0.87537467 2.1205721 -1.4264082
-0.94854027 2.1391764 -1.4276962
-0.93659389 2.1391764 -1.4276962
-0.92703688 2.1391764 -1.4276962
-0.9150905 2.1391764 -1.4276962
-0.90075487 2.1391764 -1.4276962
-0.89358711 2.1391764 -1.4276962
-0.88402998 2.1391764 -1.4276962
-0.87686217 2.1391764 -1.4276962
-0.93420464 2.1408887 -1.4232351
-0.9150905 2.1408887 -1.4232351
-0.90314412 2.1408887 -1.4232351
-0.89358711 2.1408887 -1.4232351
-0.88641924 2.1408887 -1.4232351
-0.94093978 2.1580482 -1.4290025
-0.92409432 2.1580482 -1.4290025
-0.91366619 2.1586232 -1.4275049
-0.90484238 2.1589108 -1.4267559
-0.89521635 2.1589108 -1.4267559
-0.88799691 2.1580482 -1.4290025
-0.91206187 2.1614978 -1.4200159
-0.90484238 2.1614978 -1.4200159
-0.89521635 2.1614978 -1.4200159
-0.92595673 2.178931 -1.4258014
-0.91626084 2.178931 -1.4258014
-0.90414095 2.178931 -1.4258014
-0.89686906 2.178931 -1.4258014
-0.88717318 2.178931 -1.4258014
-0.87747729 2.178931 -1.4258014
-0.91626084 2.1806684 -1.4212755
-0.90656495 2.1806684 -1.4212755
-0.89686906 2.1806684 -1.4212755
-0.88717318 2.1806684 -1.4212755
-0.87747729 2.1806684 -1.4212755
-0.93272954 2.1983685 -1.4271122
-0.90098739 2.1983685 -1.4271122
-0.89366233 2.1983685 -1.4271122
-0.88389552 2.1983685 -1.4271122
-0.8741287 2.1983685 -1.4271122
-0.86436188 2.1983685 -1.4271122
-0.85703683 2.1983685 -1.4271122
-0.92296273 2.2001185 -1.4225532
-0.9107542 2.2001185 -1.4225532
-0.90342909 2.2001185 -1.4225532
-0.89366233 2.2001185 -1.4225532
-0.88389552 2.2001185 -1.4225532
-0.8741287 2.2001185 -1.4225532
-0.86436188 2.2001185 -1.4225532
-0.93386251 2.2186797 -1.426911
-0.92730337 2.2198551 -1.4238492
-0.91500491 2.2189736 -1.4261456
-0.90516621 2.2189736 -1.4261456
-0.89532745 2.2189736 -1.4261456
-0.88630849 2.2186797 -1.426911
-0.87646979 2.2186797 -1.426911
-0.86827081 2.218092 -1.4284419
-0.94409811 2.2381082 -1.4297911
-0.93418634 2.2398841 -1.4251643
-0.92427456 2.2398841 -1.4251643
-0.91684073 2.2398841 -1.4251643
-0.9069289 2.238996 -1.4274777
-0.89701712 2.2381082 -1.4297911
-0.88710535 2.2381082 -1.4297911
-0.87719357 2.2381082 -1.4297911
-0.94117194 2.2602119 -1.4264987
-0.9336825 2.2602119 -1.4264987
-0.92452878 2.2608082 -1.4249449
-0.91371071 2.2602119 -1.4264987
-0.90372479 2.2602119 -1.4264987
-0.89373887 2.2602119 -1.4264987
-0.88375294 2.2602119 -1.4264987
-0.87376708 2.2602119 -1.4264987
-0.86627764 2.2602119 -1.4264987
-0.85296303 2.2608082 -1.4249449
-0.84630579 2.2602119 -1.4264987
-0.83382344 2.2602119 -1.4264987
-0.94574726 2.2817469 -1.4255044
-0.93568611 2.2817469 -1.4255046
-0.92562497 2.2817469 -1.4255044
-0.91556376 2.2817469 -1.4255044
-0.90550268 2.2817469 -1.4255044
-0.89544153 2.2817469 -1.4255044
-0.88538039 2.2817469 -1.4255044
-0.87531924 2.2817469 -1.4255044
-0.86525804 2.2817469 -1.4255044
-0.85435849 2.2820473 -1.4247217
-0.84513581 2.2817469 -1.4255044
-0.83507466 2.2817469 -1.4255044
-0.82752883 2.2808454 -1.4278527
-0.94194388 2.3023975 -1.4276499
-0.933496 2.3023975 -1.4276499
-0.92504805 2.3027 -1.426861
-0.91744488 2.3027 -1.426861
-0.90984178 2.3027 -1.426861
-0.884498 2.3036084 -1.424495
-0.87436044 2.3036084 -1.424495
-0.84648228 2.3027 -1.426861
-0.83634478 2.3027003 -1.426861
-0.94489211 2.3248885 -1.4258537
-0.93467706 2.3248885 -1.4258537
-0.92361075 2.3254986 -1.4242643
-0.91509819 2.3261087 -1.4226748
-0.90318066 2.3254986 -1.4242643
-0.89381689 2.3258038 -1.4234695
-0.88360184 2.3258038 -1.4234695
-0.87338674 2.3258038 -1.4234695
-0.8631717 2.3267188 -1.4210855
-0.85295665 2.3248885 -1.4258537
-0.94788551 2.3477254 -1.4240297
-0.93673396 2.3474178 -1.4248306
-0.92644018 2.3474178 -1.4248306
-0.9161464 2.3474178 -1.4248306
-0.90671045 2.3477252 -1.4240297
-0.89641666 2.3477252 -1.4240297
-0.88526511 2.3474178 -1.4248306
-0.87582904 2.3477252 -1.4240297
-0.86467755 2.3474178 -1.4248306
-0.8569572 2.3464956 -1.4272331
-0.81063515 2.3464956 -1.4272331
-0.923262 2.3684385 -1.4286336
-0.91288829 2.3684385 -1.4286336
-0.90510798 2.3684385 -1.4286336
-0.89732766 2.3684385 -1.4286336
-0.88695395 2.3684385 -1.4286336
-0.86620653 2.3684385 -1.4286336
-0.85583282 2.3684385 -1.4286336
-0.84545898 2.3684385 -1.4286336
-0.83508527 2.3684385 -1.4286336
-0.82730502 2.3684385 -1.4286336
-0.81433785 2.3684385 -1.4286336
-0.94400942 2.3702972 -1.4237912
-0.93363571 2.3702972 -1.4237912
-0.923262 2.3702972 -1.4237912
-0.91288829 2.3702972 -1.4237912
-0.90510798 2.3702972 -1.4237912
-0.89732766 2.3702972 -1.4237912
-0.88695395 2.3702972 -1.4237912
-0.87658024 2.3702972 -1.4237912
-0.86620653 2.3702972 -1.4237912
-0.85583282 2.3702972 -1.4237912
-0.84545898 2.3702972 -1.4237912
-0.83508527 2.3702972 -1.4237912
-0.82730502 2.3702972 -1.4237912
-0.81433785 2.3702972 -1.4237912
-0.94355744 2.3935339 -1.4227352
-0.93571621 2.3935339 -1.4227351
-0.92526126 2.3935339 -1.4227352
-0.91480637 2.3935339 -1.4227352
-0.90435147 2.3935339 -1.4227352
-0.89389646 2.3935339 -1.4227351
-0.88431281 2.3932216 -1.4235486
-0.87385792 2.3938463 -1.4219217
-0.86514544 2.3944707 -1.420295
-0.85643297 2.3938463 -1.4219217
-0.84684932 2.3935339 -1.4227351
-0.83726567 2.3932216 -1.4235486
-0.82332575 2.3935339 -1.4227352
-0.81635576 2.3932216 -1.4235486
-0.89304537 2.4171367 -1.4216621
-0.88514227 2.4171367 -1.4216621
-0.87460488 2.4171367 -1.4216621
-0.86406749 2.4171367 -1.4216621
-0.85353005 2.4171367 -1.4216621
-0.84211451 2.4165072 -1.4233017
-0.83508962 2.4152484 -1.4265809
-0.82455218 2.4171367 -1.4216621
-0.8166492 2.4161925 -1.4241216
-0.80611169 2.4161925 -1.4241216
-0.79820865 2.4161925 -1.4241215
-0.89483571 2.4382594 -1.4280084
-0.88421452 2.4382594 -1.4280084
-0.8762486 2.4382594 -1.4280084
-0.86828274 2.4382594 -1.4280084
-0.8417297 2.4382594 -1.4280084
-0.81517673 2.4382594 -1.4280084
-0.8072108 2.4382594 -1.4280084
-0.79924494 2.4382594 -1.4280084
-0.9346652 2.4401624 -1.4230506
-0.92669928 2.4401624 -1.4230506
-0.9107675 2.4401624 -1.4230506
-0.90280163 2.4401624 -1.4230506
-0.89483571 2.4401624 -1.4230506
-0.88686979 2.4401624 -1.4230506
-0.86562741 2.4401624 -1.4230506
-0.85500622 2.4401624 -1.4230506
-0.84438503 2.4401624 -1.4230506
-0.81517673 2.4401624 -1.4230506
-0.80986613 2.4401624 -1.4230506
-0.91271394 2.4635568 -1.4244608
-0.90468419 2.4625976 -1.4269595
-0.89308572 2.4629173 -1.4261266
-0.88327157 2.4625976 -1.4269596
-0.87524182 2.4635568 -1.4244608
-0.82171023 2.4635568 -1.4244608
-0.81368053 2.4625976 -1.4269596
-0.93088096 2.4873285 -1.4258937
-0.92278636 2.4873285 -1.4258937
-0.91469175 2.4882956 -1.4233747
-0.90929532 2.4873285 -1.4258937
-0.85533124 2.4892626 -1.4208558
-0.82295275 2.4882956 -1.4233747
-0.81485814 2.4882956 -1.4233747
-0.80676353 2.4873285 -1.4258937
-0.80426723 2.5121372 -1.4256567
-0.79520005 2.5127869 -1.4239635
-0.78613275 2.5134368 -1.4222705
-0.78436053 2.5370245 -1.4262685
-0.776133 2.5370245 -1.4262685
-0.92082006 2.562984 -1.4251691
-0.91528964 2.562984 -1.4251691
-0.77426314 2.5639751 -1.4225876
-0.77236187 2.5883775 -1.4266542
-0.76678526 2.5883775 -1.4266542
-0.77793849 2.5903759 -1.421448
-0.91664118 2.6162126 -1.422914
-0.90539402 2.6162126 -1.422914
-0.89414692 2.6162126 -1.422914
-0.78448737 2.6152048 -1.425539
-0.776052 2.615205 -1.425539
-0.76761669 2.6162126 -1.422914
-0.92158723 2.640455 -1.4296989
-0.91402549 2.6411326 -1.4279341
-0.90457326 2.6414714 -1.4270515
-0.898902 2.6424875 -1.4244043
-0.76562631 2.6414714 -1.4270515
-0.75711936 2.6414714 -1.4270515
-0.9266178 2.6692119 -1.42592
-0.91517806 2.6692119 -1.42592
-0.90659827 2.6692119 -1.42592
-0.75502193 2.6692119 -1.42592
-0.90659827 2.6712615 -1.42058
-0.75788182 2.6712615 -1.42058
-0.92596573 2.6963968 -1.4274614
-0.91442722 2.6984644 -1.4220753
-0.75577265 2.6974306 -1.4247683
-0.75362653 2.7250977 -1.4263129
-0.91128725 2.8142762 -1.4227419
-0.9164958 2.8429132 -1.4271369
-0.92484128 2.8764319 -1.4202509
-0.91571456 2.8753417 -1.4230911
-0.94562072 2.9050651 -1.4275694
-0.93333995 2.9061654 -1.4247031
-0.92412931 2.9050651 -1.4275694
-0.91798896 2.9072654 -1.4218369
-0.94509453 2.9375591 -1.4263448
-0.93579853 2.9375594 -1.4263446
-0.94316691 1.4255879 -1.4131763
-0.93660492 1.4251176 -1.4144017
-0.926835 1.4257969 -1.4126316
-0.9252795 1.4350075 -1.4157124
-0.92311788 1.4457943 -1.4149735
-0.9162969 1.4460659 -1.4142658
-0.91417706 1.4564407 -1.4148896
-0.91693687 1.4670734 -1.4151386
-0.93049544 1.4881651 -1.4169928
-0.93121541 1.494819 -1.4140902
-0.92830211 1.498883 -1.4179345
-0.93193537 1.500185 -1.4145427
-0.92901993 1.5049515 -1.4167144
-0.93669879 1.5213301 -1.4181335
-0.95271033 1.5442761 -1.4183354
-0.91407573 1.629112 -1.4181654
-0.91407573 1.6311896 -1.4127531
-0.94467437 1.641397 -1.4191756
-0.93625134 1.6423258 -1.416756
-0.92718041 1.641397 -1.4191756
-0.91551775 1.641397 -1.4191756
-0.94630408 1.6552271 -1.4165466
-0.93025249 1.6678102 -1.4175583
-0.92435235 1.668515 -1.4157223
-0.91451883 1.6681626 -1.4166403
-0.90665197 1.6678102 -1.4175583
-0.89878517 1.6678102 -1.4175583
-0.94605982 1.6816766 -1.4156266
-0.93577236 1.6819602 -1.4148878
-0.92627609 1.6816769 -1.4156266
-0.91757125 1.681393 -1.4163654
-0.90543717 1.681015 -1.4173504
-0.94799179 1.6943773 -1.4171399
-0.93339711 1.6955659 -1.4140432
-0.92543638 1.6934264 -1.4196172
-0.91548538 1.6934264 -1.4196172
-0.90951484 1.6934264 -1.4196172
-0.94500792 1.7086167 -1.4150569
-0.93699944 1.7086167 -1.4150569
-0.9249866 1.7078992 -1.4169261
-0.91898018 1.7086167 -1.4150569
-0.95273054 1.721825 -1.4160829
-0.94467366 1.7225468 -1.4142023
-0.93460244 1.7225467 -1.4142023
-0.92510682 1.7221344 -1.4152769
-0.91513157 1.7215843 -1.4167095
-0.90438908 1.7211032 -1.4179634
-0.94433486 1.7359195 -1.4152288
-0.93318927 1.7355564 -1.4161748
-0.92407018 1.7351933 -1.4171207
-0.9166398 1.7349511 -1.4177513
-0.90684521 1.7348301 -1.4180666
-0.89772606 1.734467 -1.4190125
-0.94603056 1.7494551 -1.4162674
-0.93583626 1.7494551 -1.4162674
-0.92564201 1.7494551 -1.4162674
-0.93583626 1.7509164 -1.4124606
-0.94432801 1.7636471 -1.4160419
-0.93543863 1.7631569 -1.4173186
-0.92928439 1.7631569 -1.4173186
-0.94604427 1.7775211 -1.4170977
-0.93709981 1.7770281 -1.4183824
-0.91852301 1.7770281 -1.4183824
-0.94916618 1.7910712 -1.4194589
-0.92424279 1.7910713 -1.4194589
-0.91385806 1.7918155 -1.4175198
-0.90555024 1.7910712 -1.4194589
-0.9321242 1.8075371 -1.4146955
-0.92376435 1.8075371 -1.4146955
-0.94325924 1.8215719 -1.4167434
-0.9358983 1.8227025 -1.4137981
-0.94501138 1.8373017 -1.4148653
-0.93548721 1.8373017 -1.4148653
-0.92490482 1.8357848 -1.418817
-0.91432238 1.8357848 -1.418817
-0.94572067 1.851705 -1.4169396
-0.93507069 1.8520864 -1.4159455
-0.92442065 1.8520865 -1.4159454
-0.91632664 1.8517812 -1.4167409
-0.90738058 1.8505599 -1.4199225
-0.94250852 1.8680855 -1.4143709
-0.93393373 1.8680855 -1.4143709
-0.92678815 1.8675734 -1.4157051
-0.91428328 1.8674455 -1.4160385
-0.94500828 1.8830023 -1.4161326
-0.936378 1.8830023 -1.4161326
-0.92774785 1.8822291 -1.4181468
-0.94464487 1.8975941 -1.4192686
-0.93378687 1.8975941 -1.4192686
-0.92510045 1.8983723 -1.4172411
-0.91713792 1.8981129 -1.4179169
-0.90989923 1.8975941 -1.4192686
-0.94209045 1.9147263 -1.4163232
-0.93553299 1.9147263 -1.4163232
-0.922418 1.9147263 -1.4163232
-0.91367471 1.9147263 -1.4163232
-0.95270371 1.9305074 -1.4174469
-0.94610298 1.9305074 -1.4174469
-0.93400168 1.9309015 -1.4164197
-0.92483401 1.9310331 -1.4160775
-0.91309941 1.9305074 -1.4174469
-0.943524 1.9464973 -1.4185852
-0.93466467 1.9480847 -1.4144497
-0.92580521 1.9464973 -1.4185852
-0.91916066 1.9464973 -1.4185852
