# .PCD v0.7 - Point Cloud Data file format
VERSION 0.7
FIELDS x y z
SIZE 4 4 4
TYPE F F F
COUNT 1 1 1
WIDTH 1414
HEIGHT 1
VIEWPOINT 0 0 0 1 0 0 0
POINTS 1414
DATA ascii
-0.61561352 2.9987907 -0.030128658
-0.67175978 2.9533668 -0.024734557
-0.6735608 2.9755814 -0.028236529
-0.66382468 2.9758987 -0.027410209
-0.65320349 2.9758987 -0.027410209
-0.64523762 2.9758987 -0.027410209
-0.63727176 2.9758987 -0.027410209
-0.62665057 2.9758987 -0.027410209
-0.61868465 2.9758987 -0.027410209
-0.62364328 3.0026276 -0.020133436
-0.61829013 3.0007091 -0.025131106
-0.62328553 3.0268869 -0.020296216
-0.61788911 3.0249531 -0.02533412
-0.61748141 3.0495913 -0.025540531
-0.62292182 3.0515409 -0.02046144
-0.62255192 3.0765986 -0.020629525
-0.61706686 3.0756159 -0.023189843
-0.61388004 3.1010799 -0.023381889
-0.60558438 3.1000888 -0.025963426
-0.61063993 3.1279676 -0.020973921
-0.61015683 3.1532917 -0.023775578
-0.60453326 3.1532917 -0.023775578
-0.59890974 3.1542993 -0.021150589
-0.60399407 3.179045 -0.02662456
-0.59548712 3.179045 -0.02662456
-0.59548712 3.1810772 -0.02132988
-0.59711808 3.2349849 -0.024391413
-0.5964998 3.2631633 -0.024603903
-0.59587044 3.2918358 -0.024820149
-0.5870645 3.2918358 -0.024820149
-0.57532322 3.2918358 -0.024820149
-0.56456035 3.2921867 -0.023906708
-0.67351604 2.9565136 -0.016536692
-0.66473484 2.9565136 -0.016536692
-0.65595365 2.9571431 -0.014897108
-0.64541626 2.9571431 -0.014897108
-0.66382468 2.9787533 -0.019973457
-0.65320349 2.9787533 -0.019973457
-0.64523762 2.9787533 -0.019973457
-0.63727176 2.9787533 -0.019973457
-0.62665057 2.9787533 -0.019973457
-0.66648 2.9825597 -0.010057688
-0.65408856 2.9819252 -0.011710286
-0.64523762 2.9816082 -0.012536585
-0.63815683 2.9812908 -0.013362885
-0.62665057 2.9816082 -0.012536585
-0.61602938 2.9806566 -0.015015483
-0.62364328 3.0064645 -0.010138214
-0.61829013 3.0064645 -0.010138214
-0.62292182 3.0544653 -0.012843013
-0.61748141 3.0534906 -0.015382528
-0.61706686 3.0785644 -0.015508771
-0.62255192 3.0805302 -0.010388136
-0.61432433 3.0805302 -0.010388136
-0.6060968 3.0805302 -0.010388136
-0.61388004 3.1040525 -0.015637159
-0.60558438 3.1060345 -0.010473967
-0.61063993 3.129966 -0.015767694
-0.61015683 3.1573222 -0.013275445
-0.60453326 3.1573222 -0.013275445
-0.59890974 3.1573222 -0.013275445
-0.59548712 3.1841259 -0.013388038
-0.6023193 3.2673345 -0.013737977
-0.5964998 3.2673345 -0.013737977
-0.59587044 3.2960436 -0.013858736
-0.5870645 3.2960436 -0.013858736
-0.57825851 3.2960436 -0.013858736
-0.56651723 3.2949917 -0.016599059
-0.57548755 3.3256149 -0.013059974
-0.56561643 3.3252614 -0.013981521
-0.56959349 3.6123538 -0.018197894
-0.56538415 3.6486444 -0.015341282
-0.55563617 3.6486444 -0.015341282
-0.54913747 3.64748 -0.018374801
-0.55452955 3.6856468 -0.012428641
-0.54468578 3.6844709 -0.015491903
-0.53484207 3.683295 -0.018555164
-0.5282796 3.683295 -0.018555164
-0.51515466 3.6844709 -0.015491903
-0.52689058 3.7198193 -0.018739104
-0.5401457 3.7221944 -0.012551785
-0.53351814 3.7221944 -0.012551785
-0.52689058 3.7221944 -0.012551785
-0.51363552 3.7221944 -0.012551785
-0.51208574 3.7582736 -0.015802205
-0.50539184 3.7582736 -0.015802205
-0.50374293 3.7962942 -0.015962005
-0.50206017 3.8350902 -0.016125202
-0.48653999 3.8759234 -0.013070226
-0.47565791 3.9576437 -0.013345838
-0.67439413 2.9590311 -0.009978354
-0.66649109 2.9590311 -0.009978354
-0.65595365 2.9590311 -0.009978354
-0.62961012 2.9590311 -0.009978354
-0.64278191 2.9618633 -0.0026002228
-0.63487887 2.9618635 -0.0026002228
-0.62961012 2.9618635 -0.0026002228
-0.67444587 2.9854145 -0.0026208758
-0.66382468 2.9854145 -0.0026208758
-0.65585881 2.9854145 -0.0026208758
-0.62665057 2.9854145 -0.0026208758
-0.62364328 3.0083828 -0.005140543
-0.61829013 3.0083828 -0.005140543
-0.62364328 3.0103011 -0.00014305115
-0.61829013 3.0103011 -0.00014305115
-0.61519092 3.0346227 -0.00014424324
-0.62292182 3.05739 -0.0052244663
-0.61204106 3.0583649 -0.0026848912
-0.62255192 3.0824957 -0.0052673817
-0.6115818 3.0834785 -0.0027070045
-0.60335428 3.0834785 -0.0027070045
-0.59948665 3.1349621 -0.0027521849
-0.61015683 3.1613526 -0.0027753711
-0.59890974 3.1613526 -0.0027753711
-0.59454191 3.1878521 -0.0036812227
-0.60344553 3.2165124 -0.00015282631
-0.6023193 3.2715054 -0.0028719902
-0.5964998 3.2715054 -0.0028719902
-0.59587044 3.2991993 -0.0056376457
-0.5870645 3.2991993 -0.0056376457
-0.57532322 3.2991993 -0.0056376457
-0.59587044 3.3013031 -0.00015687943
-0.58999979 3.3013031 -0.00015687943
-0.57238787 3.3013031 -0.00015687943
-0.56358194 3.3013031 -0.00015687943
-0.5715391 3.3284452 -0.0056875944
-0.56561643 3.3284452 -0.0056875944
-0.58634579 3.3305676 -0.00015830994
-0.56430101 3.652914 -0.0042183003
-0.55563617 3.6521378 -0.0062406063
-0.54263878 3.6544666 -0.00017368793
-0.53614014 3.6521378 -0.0062406063
-0.55452955 3.6879985 -0.0063019991
-0.54796702 3.6879985 -0.0063019991
-0.53484207 3.6879985 -0.0063019991
-0.5282796 3.6879985 -0.0063019991
-0.51515466 3.6879985 -0.0063019991
-0.56109202 3.6903503 -0.00017535686
-0.55452955 3.6903503 -0.00017535686
-0.54140455 3.6903503 -0.00017535686
-0.53484207 3.6903503 -0.00017535686
-0.5282796 3.6903503 -0.00017535686
-0.51515466 3.6903503 -0.00017535686
-0.52689058 3.7257571 -0.0032707453
-0.51363552 3.7257571 -0.0032707453
-0.50700796 3.7257571 -0.0032707453
-0.50539184 3.7630715 -0.0033035874
-0.50374293 3.7999289 -0.0064932108
-0.50374293 3.802352 -0.00018072128
-0.50206017 3.8387623 -0.0065596104
-0.49522939 3.8387623 -0.0065596104
-0.50206017 3.8412101 -0.00018262863
-0.49522939 3.8412101 -0.00018262863
-0.49344125 3.8783965 -0.0066273212
-0.48653999 3.8783965 -0.0066273212
-0.49344125 3.8808699 -0.00018441677
-0.48653999 3.8808699 -0.00018441677
-0.48464242 3.9188566 -0.0066964626
-0.48464242 3.9213557 -0.00018644333
-0.4827047 3.9614317 -0.0034777522
-0.47565791 3.9601691 -0.0067671537
-0.48072559 4.0049133 -0.00019037724
-0.47360373 4.0036373 -0.0035148263
-0.47150517 4.0467501 -0.0035526156
-0.46430662 4.0480399 -0.00019240379
-0.46572232 4.0894966 -0.0069880486
-0.46208388 4.0921049 -0.00019443035
-0.45613366 4.1358204 -0.0036307573
-0.44509816 4.1358204 -0.0036307573
-0.43774116 4.1358204 -0.0036307573
-0.40402645 4.326251 -0.0037979484
-0.40094578 4.3766279 -0.0038422346
-0.39316043 4.3766279 -0.0038422346
-0.38597679 4.4281907 -0.0038874745
-0.28751332 4.4296021 -0.00021052361
-0.27175918 4.4296021 -0.00021052361
-0.2638821 4.4296021 -0.00021052361
-0.25600502 4.4296021 -0.00021052361
-0.37065083 4.4824104 -0.000213027
0 0 0
0.80757332 2.6888809 0.0043334961
0.8195197 2.6888809 0.0043334961
0.80457181 2.7088413 0.0058624544
0.8133955 2.7099912 0.0088580251
0.82221937 2.7094164 0.00736024
0.83505398 2.7091286 0.0066113472
-0.66385674 2.9656396 0.007237345
-0.65419739 2.9659545 0.0080571575
-0.64278191 2.9656396 0.007237345
-0.63487887 2.9656396 0.007237345
-0.62961012 2.9656396 0.007237345
-0.65585881 2.9882691 0.0048159957
-0.62665057 2.9882691 0.0048159957
-0.62665057 2.9901724 0.0097737908
-0.62364328 3.0131788 0.0073533654
-0.61829013 3.0131788 0.0073533654
-0.61519092 3.0365565 0.0048937798
-0.61204106 3.0612893 0.0049337149
-0.60388052 3.0612893 0.0049337149
-0.60061175 3.086427 0.0049741268
-0.61015683 3.1643758 0.0050997734
-0.60453326 3.1643758 0.0050997734
-0.59609795 3.1643758 0.0050997734
-0.59265149 3.1912394 0.0051430464
-0.6023193 3.2746336 0.0052775145
-0.5964998 3.2746336 0.0052775145
-0.59587044 3.3034072 0.0053238869
-0.56651723 3.3034072 0.0053238869
-0.5952298 3.33269 0.0053709745
-0.58634579 3.33269 0.0053709745
-0.57746178 3.33269 0.0053709745
-0.5621348 3.6567955 0.0058933496
-0.55563617 3.6567955 0.0058933496
-0.54588813 3.6567955 0.0058933496
-0.54140455 3.6927021 0.0059511662
-0.53484207 3.6927021 0.0059511662
-0.5282796 3.6927021 0.0059511662
-0.51515466 3.6927021 0.0059511662
-0.52689058 3.7293198 0.006010294
-0.51363552 3.7293198 0.006010294
-0.50700796 3.7293198 0.006010294
-0.50539184 3.7666698 0.0060703754
-0.49869788 3.7666698 0.0060703754
-0.49698126 3.804775 0.0061318874
-0.49522939 3.843658 0.0061944723
-0.49344125 3.883343 0.0062584877
-0.49161568 3.9238548 0.0063236952
-0.48464242 3.9238548 0.0063236952
-0.4827047 3.9652197 0.0063904524
-0.48072559 4.0074654 0.0064584017
-0.47360373 4.0074654 0.0064584017
-0.47150517 4.0506196 0.0065280199
-0.46430662 4.0506196 0.0065280199
-0.46208388 4.0947123 0.0065991879
-0.45613366 4.1397748 0.0066717863
-0.44509816 4.1397748 0.0066717863
-0.43406266 4.1397748 0.0066717863
-0.40703693 4.2811093 0.0068994761
0.015216333 4.2811093 0.0068994761
0.026628584 4.2811093 0.0068994761
0.034236751 4.2811093 0.0068994761
0.045649 4.2811093 0.0068994761
0.057061251 4.2811093 0.0068994761
0.064669415 4.2811093 0.0068994761
0.076081663 4.2811093 0.0068994761
0.087493919 4.2811093 0.0068994761
0.095102087 4.2811093 0.0068994761
0.10271025 4.2811093 0.0068994761
0.1141225 4.2811093 0.0068994761
-0.40402645 4.3303881 0.0069788694
-0.39633071 4.3303881 0.0069788694
-0.16545846 4.3303881 0.0069788694
-0.11543613 4.3303881 0.0069788694
-0.10389252 4.3303881 0.0069788694
-0.096196778 4.3303881 0.0069788694
-0.084653169 4.3303881 0.0069788694
-0.073109552 4.3303881 0.0069788694
-0.06541381 4.3303881 0.0069788694
-0.053870194 4.3303881 0.0069788694
-0.042326581 4.3303881 0.0069788694
-0.034630839 4.3303881 0.0069788694
-0.026935097 4.3303881 0.0069788694
-0.015391484 4.3303881 0.0069788694
-0.003847871 4.3303881 0.0069788694
0.003847871 4.3303881 0.0069788694
-0.39316043 4.3808131 0.0070601702
-0.38537505 4.3808131 0.0070601702
-0.30752152 4.3808131 0.0070601702
-0.29584348 4.3808131 0.0070601702
-0.27638009 4.3808131 0.0070601702
-0.19463387 4.3808131 0.0070601702
-0.18295583 4.3808131 0.0070601702
-0.17517048 4.3808131 0.0070601702
-0.15570709 4.3808131 0.0070601702
-0.14402907 4.3808131 0.0070601702
-0.13624372 4.3808131 0.0070601702
-0.12845835 4.3808131 0.0070601702
-0.38203827 4.432425 0.0071433783
-0.37416118 4.432425 0.0071433783
-0.35446846 4.432425 0.0071433783
-0.34265286 4.432425 0.0071433783
-0.33477578 4.432425 0.0071433783
-0.32689872 4.432425 0.0071433783
-0.31902164 4.432425 0.0071433783
-0.28751332 4.432425 0.0071433783
-0.27175918 4.432425 0.0071433783
-0.2638821 4.432425 0.0071433783
-0.25600502 4.432425 0.0071433783
-0.2441894 4.432425 0.0071433783
-0.23237379 4.432425 0.0071433783
-0.20874254 4.432425 0.0071433783
-0.37065083 4.4852672 0.0072284937
-0.22717308 4.4852672 0.0072284937
-0.2192021 4.4852672 0.0072284937
0.80757332 2.6940184 0.017716944
0.81792688 2.6934478 0.016229888
0.82668751 2.6931622 0.01548636
0.83624458 2.6940184 0.017716944
0.80376959 2.7125783 0.015597969
0.8133955 2.7117159 0.013351321
0.82061499 2.7117159 0.013351321
-0.64559191 2.9452372 0.014501035
-0.67439413 2.968472 0.014615476
-0.66385674 2.968472 0.014615476
-0.65595365 2.968472 0.014615476
-0.64278191 2.968472 0.014615476
-0.63487887 2.968472 0.014615476
-0.62961012 2.968472 0.014615476
-0.67439413 2.97036 0.01953429
-0.66385674 2.97036 0.01953429
-0.6533193 2.97036 0.01953429
-0.64278191 2.97036 0.01953429
-0.63487887 2.97036 0.01953429
-0.62697577 2.97036 0.01953429
-0.6257655 2.9927099 0.016384304
-0.61868465 2.9939785 0.0196895
-0.62364328 3.0160563 0.014849782
-0.61650568 3.0173352 0.018181602
-0.62292182 3.0642138 0.012552142
-0.615668 3.0638888 0.011705637
-0.60388052 3.0632389 0.010012627
-0.60061175 3.0883927 0.010094762
-0.61432433 3.0903583 0.015215516
-0.60335428 3.0903583 0.015215516
-0.60506326 3.1399584 0.010263324
-0.60506326 3.1419568 0.015469551
-0.60453326 3.1673989 0.012974799
-0.59890974 3.1673989 0.012974799
-0.59643233 3.1939495 0.012202621
-0.59772569 3.222662 0.015866995
-0.59711808 3.2504914 0.016004086
-0.6023193 3.2767191 0.010710478
-0.5964998 3.2777619 0.01342696
-0.59587044 3.3065629 0.013544917
-0.58804291 3.3069134 0.014458378
-0.57238787 3.3065629 0.013544917
-0.58535868 3.33552 0.012743354
-0.5715391 3.3358738 0.013664901
-0.5621348 3.6591246 0.011960387
-0.55563617 3.6591246 0.011960387
-0.54913747 3.6591246 0.011960387
-0.55563617 3.6614535 0.018027425
-0.55452955 3.6974056 0.018204331
-0.54468578 3.6962297 0.01514107
-0.53484207 3.6962297 0.01514107
-0.5282796 3.6962297 0.01514107
-0.51515466 3.6950538 0.012077808
-0.52468139 3.7332783 0.016322494
-0.51363552 3.7328825 0.015291274
-0.50700796 3.7328825 0.015291274
-0.50539184 3.7690687 0.012319684
-0.50539184 3.7714677 0.018569112
-0.50374293 3.8084097 0.015600681
-0.50206017 3.8473299 0.015760005
-0.49522939 3.8485539 0.018948555
-0.50034255 3.8858161 0.012701392
-0.49510232 3.9276032 0.016088843
-0.48622811 3.9677451 0.012969136
-0.48622811 3.9702704 0.01954782
-0.48072559 4.0112934 0.016431689
-0.47510445 4.0544891 0.016608775
-0.46572232 4.0973206 0.013392806
-0.45480698 4.0973206 0.013392806
-0.44753006 4.0973206 0.013392806
-0.44509816 4.1424112 0.013540149
-0.43774116 4.1424112 0.013540149
0.21439297 4.2356348 0.013844728
0.2256768 4.2356348 0.013844728
0.23696065 4.2356348 0.013844728
0.24448322 4.2356348 0.013844728
0.25576705 4.2356348 0.013844728
0.26705089 4.2356348 0.013844728
0.28585729 4.2356348 0.013844728
0.29714113 4.2356348 0.013844728
0.30466369 4.2356348 0.013844728
0.31594753 4.2356348 0.013844728
0.32723138 4.2356348 0.013844728
0.33475393 4.2356348 0.013844728
0.34603778 4.2356348 0.013844728
0.35732162 4.2356348 0.013844728
0.36484417 4.2356348 0.013844728
0.37612802 4.2356348 0.013844728
-0.40703693 4.2838359 0.014002323
0.015216333 4.2838359 0.014002323
0.026628584 4.2838359 0.014002323
0.034236751 4.2838359 0.014002323
0.045649 4.2838359 0.014002323
0.057061251 4.2838359 0.014002323
0.064669415 4.2838359 0.014002323
0.076081663 4.2838359 0.014002323
0.087493919 4.2838359 0.014002323
0.095102087 4.2838359 0.014002323
0.10271025 4.2838359 0.014002323
0.1141225 4.2838359 0.014002323
0.12553474 4.2838359 0.014002323
0.13314292 4.2838359 0.014002323
0.14455517 4.2838359 0.014002323
0.15596741 4.2838359 0.014002323
0.16357559 4.2838359 0.014002323
0.17498782 4.2838359 0.014002323
0.18640009 4.2838359 0.014002323
0.19400825 4.2838359 0.014002323
0.20542049 4.2838359 0.014002323
0.27769807 4.2838359 0.014002323
-0.40402645 4.3331461 0.014163494
-0.16545846 4.3331461 0.014163494
-0.14237122 4.3331461 0.014163494
-0.11543613 4.3331461 0.014163494
-0.10389252 4.3331461 0.014163494
-0.096196778 4.3331461 0.014163494
-0.084653169 4.3331461 0.014163494
-0.073109552 4.3331461 0.014163494
-0.06541381 4.3331461 0.014163494
-0.053870194 4.3331461 0.014163494
-0.042326581 4.3331461 0.014163494
-0.034630839 4.3331461 0.014163494
-0.026935097 4.3331461 0.014163494
-0.015391484 4.3331461 0.014163494
-0.003847871 4.3331461 0.014163494
0.003847871 4.3331461 0.014163494
-0.33477026 4.3836031 0.01432848
-0.32309222 4.3836031 0.01432848
-0.31530687 4.3836031 0.01432848
-0.30752152 4.3836031 0.01432848
-0.29973617 4.3836031 0.01432848
-0.27638009 4.3836031 0.01432848
-0.24523868 4.3836031 0.01432848
-0.23745333 4.3836031 0.01432848
-0.22966796 4.3836031 0.01432848
-0.2063119 4.3836031 0.01432848
-0.19463387 4.3836031 0.01432848
-0.15570709 4.3836031 0.01432848
-0.13624372 4.3836031 0.01432848
-0.12845835 4.3836031 0.01432848
-0.40566948 4.4352479 0.01449728
-0.3977924 4.4352479 0.01449728
-0.38597679 4.4352479 0.01449728
-0.37416118 4.4352479 0.01449728
-0.3662841 4.4352479 0.01449728
-0.35446846 4.4352479 0.01449728
-0.2953904 4.4352479 0.01449728
-0.28751332 4.4352479 0.01449728
-0.27175918 4.4352479 0.01449728
-0.2638821 4.4352479 0.01449728
-0.25600502 4.4352479 0.01449728
-0.22449671 4.4352479 0.01449728
-0.21661963 4.4352479 0.01449728
-0.18511131 4.4352479 0.01449728
-0.17723425 4.4352479 0.01449728
0.80757332 2.6957309 0.022178054
0.81713045 2.6965873 0.024408638
0.82668751 2.6965871 0.024408638
0.83624458 2.6965871 0.024408638
0.80376953 2.7160282 0.024584591
0.8133955 2.7168906 0.02683121
-0.67439413 2.9731922 0.026912391
-0.66385674 2.9731922 0.026912391
-0.6533193 2.9731922 0.026912391
-0.64278191 2.9731922 0.026912391
-0.63487887 2.9731922 0.026912391
-0.62697577 2.9731922 0.026912391
-0.62399524 2.9968333 0.027126312
-0.61868465 2.9968333 0.027126312
-0.61829013 3.0198932 0.024845004
-0.61829013 3.0218115 0.029842615
-0.61519092 3.0433252 0.022526741
-0.61385447 3.0684378 0.023556709
-0.60388052 3.0671382 0.020170689
-0.6115818 3.0942898 0.025457025
-0.60244012 3.0936346 0.023750106
-0.60506326 3.1449547 0.023278952
-0.59948665 3.1449547 0.023278952
-0.59890974 3.1714292 0.023474932
-0.59548712 3.1983528 0.023674309
-0.59200579 3.2267616 0.026546955
-0.59711808 3.2525589 0.02139008
-0.5964998 3.2819328 0.024292886
-0.59587044 3.3097186 0.021765947
-0.5870645 3.3097186 0.021765947
-0.59587044 3.3118224 0.027246714
-0.5870645 3.3118224 0.027246714
-0.57532322 3.3118224 0.027246714
-0.56064659 3.3118224 0.027246714
-0.58338445 3.3390577 0.021958828
-0.57450044 3.3390577 0.021958828
-0.5715391 3.3411801 0.027488112
-0.55563617 3.6637824 0.024094462
-0.55452955 3.6997576 0.024330974
-0.54468578 3.6997576 0.024330974
-0.53484207 3.6997576 0.024330974
-0.52499837 3.6997576 0.024330974
-0.51515466 3.6997576 0.024330974
-0.51363552 3.736445 0.024572253
-0.50700796 3.736445 0.024572253
-0.50539184 3.7738664 0.024818301
-0.50374293 3.8120446 0.025069475
-0.50206017 3.8510017 0.025325656
-0.50034255 3.8907626 0.025587082
-0.49510232 3.9313517 0.025853992
-0.48622811 3.9727957 0.026126623
-0.48072559 4.0151219 0.026404977
-0.47510445 4.0583587 0.02668941
-0.46572232 4.0999279 0.020186305
-0.45480698 4.0999279 0.020186305
-0.44389158 4.0999279 0.020186305
-0.43297625 4.0999279 0.020186305
-0.42569932 4.0999279 0.020186305
-0.46572232 4.1025362 0.026979923
-0.45480698 4.1025362 0.026979923
-0.44389158 4.1025362 0.026979923
-0.43297625 4.1025362 0.026979923
-0.42569932 4.1025362 0.026979923
0.73937792 4.1463661 0.023842573
0.74673492 4.1463661 0.023842573
0.75409192 4.1476846 0.027276754
0.72528851 4.1938362 0.02758038
0.73272741 4.1925035 0.024107933
0.74016625 4.1925035 0.024107933
0.14668992 4.2383304 0.020867705
0.16925761 4.2383304 0.020867705
0.17678016 4.2383304 0.020867705
0.19182529 4.2383304 0.020867705
0.21439297 4.2383304 0.020867705
0.2256768 4.2383304 0.020867705
0.23696065 4.2383304 0.020867705
0.24448322 4.2383304 0.020867705
0.25576705 4.2383304 0.020867705
0.26705089 4.2383304 0.020867705
0.28585729 4.2383304 0.020867705
0.29714113 4.2383304 0.020867705
0.30466369 4.2383304 0.020867705
0.31594753 4.2383304 0.020867705
0.32723138 4.2383304 0.020867705
0.33475393 4.2383304 0.020867705
0.34603778 4.2383304 0.020867705
0.35732162 4.2383304 0.020867705
0.36484417 4.2383304 0.020867705
0.37612802 4.2383304 0.020867705
0.1316448 4.2410264 0.027890682
0.14668992 4.2410264 0.027890682
0.15421249 4.2410264 0.027890682
0.16925761 4.2410264 0.027890682
0.19558656 4.2410264 0.027890682
0.2256768 4.2410264 0.027890682
0.25952834 4.2410264 0.027890682
0.26705089 4.2410264 0.027890682
0.28585729 4.2410264 0.027890682
0.29714113 4.2410264 0.027890682
0.30466369 4.2410264 0.027890682
0.31594753 4.2410264 0.027890682
0.32723138 4.2410264 0.027890682
0.33475393 4.2410264 0.027890682
0.34603778 4.2410264 0.027890682
0.35732162 4.2410264 0.027890682
0.36484417 4.2410264 0.027890682
0.37612802 4.2410264 0.027890682
-0.064669415 4.2865624 0.02110517
0.015216332 4.2879257 0.024656594
0.026628584 4.2879257 0.024656594
0.034236751 4.2879257 0.024656594
0.045649 4.2879257 0.024656594
0.057061251 4.2879257 0.024656594
0.064669415 4.2879257 0.024656594
0.076081663 4.2879257 0.024656594
0.087493919 4.2879257 0.024656594
0.095102087 4.2879257 0.024656594
0.10271025 4.2879257 0.024656594
0.1141225 4.2879257 0.024656594
0.12553474 4.2879257 0.024656594
0.13314292 4.2865624 0.02110517
0.14075108 4.2879257 0.024656594
0.15596741 4.2865624 0.02110517
0.16357559 4.2879257 0.024656594
0.17879191 4.289289 0.028208017
0.18640009 4.2879257 0.024656594
0.20668852 4.2874713 0.023472786
0.21683276 4.289289 0.028208017
0.23965725 4.289289 0.028208017
0.24726541 4.289289 0.028208017
0.25487357 4.289289 0.028208017
0.27769807 4.2879257 0.024656594
-0.17315421 4.3359041 0.021348119
-0.16545846 4.3372831 0.024940431
-0.15391484 4.3372831 0.024940431
-0.14237122 4.3372831 0.024940431
-0.13467549 4.3372831 0.024940431
-0.12697974 4.3372831 0.024940431
-0.11543613 4.3372827 0.024940431
-0.10389252 4.3372831 0.024940431
-0.096196778 4.3372831 0.024940431
-0.084653169 4.3372827 0.024940431
-0.073109552 4.3372831 0.024940431
-0.06541381 4.3386617 0.028532743
-0.053870194 4.3372831 0.024940431
-0.042326581 4.3372831 0.024940431
-0.034630839 4.3372831 0.024940431
-0.026935097 4.3372831 0.024940431
-0.015391484 4.3372827 0.024940431
-0.003847871 4.3372831 0.024940431
0.003847871 4.3372831 0.024940431
-0.42430183 4.3863931 0.02159667
-0.41651648 4.3877878 0.025230825
-0.40873113 4.3877878 0.025230825
-0.39316043 4.3863931 0.02159667
-0.38537505 4.3863931 0.02159667
-0.33477026 4.389183 0.02886498
-0.32309222 4.3877878 0.025230825
-0.31530687 4.3877878 0.025230825
-0.30752152 4.3877878 0.025230825
-0.29584348 4.3877878 0.025230825
-0.28416544 4.3877878 0.025230825
-0.27638009 4.3877878 0.025230825
-0.26470208 4.3877878 0.025230825
-0.25302404 4.3877878 0.025230825
-0.24523868 4.3877878 0.025230825
-0.23745333 4.3877878 0.025230825
-0.22966796 4.3877878 0.025230825
-0.2063119 4.3877878 0.025230825
-0.19463387 4.3877878 0.025230825
-0.18295583 4.3877878 0.025230825
-0.17517048 4.389183 0.02886498
-0.40566948 4.4380713 0.021851182
-0.38203827 4.4380713 0.021851182
-0.37416118 4.4380713 0.021851182
-0.3662841 4.4380713 0.021851182
-0.35446846 4.4380713 0.021851182
-0.34265286 4.4380713 0.021851182
-0.33477578 4.4380713 0.021851182
-0.22449671 4.4380713 0.021851182
-0.21661963 4.4380713 0.021851182
-0.42930073 4.4408937 0.029204965
-0.40566948 4.4408937 0.029204965
-0.3977924 4.4408937 0.029204965
-0.38597679 4.4408937 0.029204965
-0.37416118 4.4408937 0.029204965
-0.3662841 4.4408937 0.029204965
-0.35446846 4.4408937 0.029204965
-0.22449671 4.4408937 0.029204965
-0.21661963 4.4408937 0.029204965
0.82318431 2.6799724 0.030879319
0.83504581 2.6799724 0.030879319
0.8279289 2.6825228 0.037523508
0.83504581 2.6825228 0.037523508
0.8195197 2.6991558 0.031100333
0.82429826 2.6991558 0.031100333
0.83385533 2.6991558 0.031100333
0.81713045 2.7008684 0.035561562
0.82668751 2.7008684 0.035561562
0.79414356 2.7186153 0.031324565
0.80376959 2.7186153 0.031324565
0.8133955 2.7186153 0.031324565
0.82061499 2.7186153 0.031324565
0.79414356 2.72034 0.035817862
0.80376959 2.72034 0.035817862
0.8133955 2.72034 0.035817862
-0.64036447 2.9546039 0.038902342
-0.62990952 2.9546039 0.038902342
-0.66385674 2.9769685 0.036749899
-0.6533193 2.9769685 0.036749899
-0.64190382 2.9766538 0.035930097
-0.63487887 2.9760244 0.034290493
-0.62785387 2.9772832 0.037569702
-0.61907274 2.9779127 0.039209306
-0.62665057 2.9996881 0.034563124
-0.61868465 2.9996881 0.034563124
-0.61868465 3.0015912 0.039521039
-0.62328553 3.0481598 0.03512156
-0.62292182 3.0720124 0.032868207
-0.615668 3.0716875 0.03202172
-0.61341017 3.0975659 0.033991616
-0.6060968 3.0962553 0.030577779
-0.6111148 3.123872 0.035994053
-0.60558438 3.1228809 0.033412516
-0.60506326 3.1489515 0.033691466
-0.59948665 3.1489515 0.033691466
-0.59890974 3.1754599 0.033974946
-0.59643233 3.2027562 0.03514592
-0.59486574 3.2288113 0.031886816
-0.59200579 3.2308612 0.037226796
-0.59134883 3.2587614 0.037548304
-0.59359002 3.2861042 0.035158873
-0.58486074 3.2871468 0.037875295
-0.57904124 3.2871468 0.037875295
-0.59587044 3.3139262 0.032727361
-0.5870645 3.3139262 0.032727361
-0.57825851 3.3160303 0.038208127
-0.58338445 3.3433027 0.033017516
-0.57548755 3.3447177 0.036703706
-0.56561643 3.3433027 0.033017516
-0.57366276 3.374274 0.036102235
-0.56469935 3.3753448 0.038891554
-0.55563617 3.6672757 0.033194959
-0.54588813 3.6672757 0.033194959
-0.53614014 3.6684401 0.036228538
-0.54140455 3.7021093 0.030457616
-0.53484207 3.7032852 0.033520877
-0.52499837 3.7032852 0.033520877
-0.51515466 3.7032852 0.033520877
-0.50859219 3.7044611 0.036584139
-0.51363552 3.7388201 0.030759573
-0.50700796 3.7411952 0.036947012
-0.51208574 3.7762654 0.03106761
-0.50539184 3.7774649 0.034192324
-0.50374293 3.8156796 0.034538329
-0.50206017 3.8546739 0.034891248
-0.50034255 3.8944724 0.035251439
-0.49510232 3.9351006 0.035619259
-0.48622811 3.976584 0.035994709
-0.48072559 4.0176744 0.033053756
-0.48072559 4.0202265 0.039702654
-0.47510445 4.0609384 0.033409715
-0.46572232 4.1051435 0.033773541
-0.45480698 4.1051435 0.033773541
-0.44389158 4.1051435 0.033773541
-0.43297625 4.1051435 0.033773541
-0.42569932 4.1051435 0.033773541
-0.4184224 4.1051435 0.033773541
0.74673492 4.150321 0.034145117
0.75409192 4.150321 0.034145117
0.72528851 4.1965022 0.034525037
0.73272741 4.1965022 0.034525037
0.74388564 4.1965022 0.034525037
0.13540608 4.243722 0.03491354
0.14668992 4.243722 0.03491354
0.15421249 4.243722 0.03491354
0.16549632 4.243722 0.03491354
0.19558656 4.243722 0.03491354
0.2256768 4.243722 0.03491354
0.29714113 4.243722 0.03491354
0.31594753 4.243722 0.03491354
0.32723138 4.243722 0.03491354
0.33475393 4.243722 0.03491354
0.34603778 4.243722 0.03491354
0.36484417 4.243722 0.03491354
0.37612802 4.243722 0.03491354
0.015216333 4.2920156 0.035310864
0.026628584 4.2920156 0.035310864
0.034236751 4.2920156 0.035310864
0.045649 4.2920156 0.035310864
0.057061251 4.2920156 0.035310864
0.064669415 4.2920156 0.035310864
0.076081663 4.2920156 0.035310864
0.087493919 4.2920156 0.035310864
0.095102087 4.2920156 0.035310864
0.10271025 4.2920156 0.035310864
0.1141225 4.2920156 0.035310864
0.12553474 4.2920156 0.035310864
0.17879191 4.2920156 0.035310864
0.18640009 4.2920156 0.035310864
0.20922458 4.2920156 0.035310864
0.21683276 4.2920156 0.035310864
0.23965725 4.2920156 0.035310864
0.24726541 4.2920156 0.035310864
0.25487357 4.2920156 0.035310864
0.26248175 4.2920156 0.035310864
0.27389401 4.2920156 0.035310864
0.28530625 4.2920156 0.035310864
0.29291442 4.2920156 0.035310864
0.30813074 4.2920156 0.035310864
0.36138791 4.2920156 0.035310864
-0.31937331 4.3414197 0.035717249
-0.16545846 4.3414197 0.035717249
-0.15391484 4.3414197 0.035717249
-0.14237122 4.3414197 0.035717249
-0.13467549 4.3414197 0.035717249
-0.12697974 4.3414197 0.035717249
-0.11543613 4.3414197 0.035717249
-0.10389252 4.3414197 0.035717249
-0.096196778 4.3414197 0.035717249
-0.084653169 4.3414197 0.035717249
-0.073109552 4.3414197 0.035717249
-0.06541381 4.3414197 0.035717249
-0.053870194 4.3414197 0.035717249
-0.042326581 4.3414197 0.035717249
-0.034630839 4.3414197 0.035717249
-0.026935097 4.3414197 0.035717249
-0.015391484 4.3414197 0.035717249
-0.003847871 4.3414197 0.035717249
0.003847871 4.3414197 0.035717249
-0.3775897 4.391973 0.03613317
-0.36591166 4.391973 0.03613317
-0.35423365 4.391973 0.03613317
-0.3464483 4.391973 0.03613317
-0.33477026 4.391973 0.03613317
-0.31530687 4.391973 0.03613317
-0.30752152 4.391973 0.03613317
-0.29584348 4.391973 0.03613317
-0.28416544 4.391973 0.03613317
-0.27638009 4.391973 0.03613317
-0.26470208 4.391973 0.03613317
-0.25302404 4.391973 0.03613317
-0.23745333 4.391973 0.03613317
-0.22966796 4.391973 0.03613317
-0.21409726 4.391973 0.03613317
-0.2063119 4.391973 0.03613317
-0.19463387 4.391973 0.03613317
-0.18295583 4.391973 0.03613317
-0.17517048 4.391973 0.03613317
-0.43717781 4.443717 0.036558867
-0.42536217 4.443717 0.036558867
-0.41354656 4.443717 0.036558867
-0.40566948 4.443717 0.036558867
-0.3977924 4.443717 0.036558867
-0.38991532 4.443717 0.036558867
-0.24812794 4.443717 0.036558867
-0.22449671 4.443717 0.036558867
0.83386374 2.6678123 0.048254192
0.81843978 2.6867735 0.048597157
0.82555658 2.6859233 0.046382397
0.83425504 2.6856401 0.045644145
0.80518407 2.7060058 0.04894501
0.81713039 2.7042935 0.044483859
0.82589108 2.7031517 0.041509748
0.80376959 2.7229271 0.042557895
0.8133955 2.7229273 0.042557895
-0.63513702 2.9564774 0.043782651
-0.62990952 2.9564774 0.043782651
-0.62697577 2.9798007 0.044128001
-0.61907274 2.9798007 0.044128001
-0.61868465 3.0034943 0.044478953
-0.62328553 3.0510607 0.042678654
-0.62292182 3.0759115 0.043026209
-0.61476123 3.0759115 0.043026209
-0.6115818 3.1011696 0.043379545
-0.6060968 3.1011696 0.043379545
-0.60374087 3.1265144 0.042878151
-0.60506326 3.1539478 0.046706915
-0.59948665 3.1519494 0.041500807
-0.59890974 3.178483 0.04185009
-0.60453326 3.1804981 0.047100186
-0.59890974 3.1804981 0.047100186
-0.59643233 3.2061436 0.043970305
-0.59486574 3.2339358 0.045236707
-0.59423345 3.2618628 0.045627415
-0.5906803 3.2892325 0.043308377
-0.58486074 3.2892325 0.043308377
-0.57904124 3.2892325 0.043308377
-0.59359002 3.2913179 0.048741221
-0.58486074 3.2913179 0.048741221
-0.57904124 3.2913179 0.048741221
-0.57825851 3.3181341 0.043688893
-0.57825851 3.3202379 0.04916954
-0.57450044 3.348609 0.046840847
-0.57067496 3.3774862 0.044470429
-0.56469935 3.3774862 0.044470429
-0.55872369 3.3774862 0.044470429
-0.54588813 3.6719337 0.045329094
-0.53614014 3.6707692 0.042295575
-0.54140455 3.7091646 0.048837304
-0.53484207 3.7079887 0.045774043
-0.52499837 3.7079887 0.045774043
-0.51515466 3.7079887 0.045774043
-0.50859219 3.7079887 0.045774043
-0.50700796 3.7447579 0.046227992
-0.50539184 3.783462 0.049815655
-0.51050454 3.819314 0.044007063
-0.50374293 3.819314 0.044007063
-0.50206017 3.8583455 0.04445684
-0.50034255 3.8981822 0.044915795
-0.49858895 3.9388487 0.045384407
-0.49679828 3.980372 0.045862794
-0.48975149 3.980372 0.045862794
-0.48784745 4.022779 0.046351433
-0.48590228 4.0660982 0.046850681
-0.47510445 4.0648084 0.04349041
0.74505013 4.0660982 0.046850681
-0.46572232 4.1077514 0.04056704
-0.45480698 4.1077514 0.04056704
-0.44389158 4.1077514 0.04056704
-0.43297625 4.1077514 0.04056704
-0.42569932 4.1077514 0.04056704
-0.4184224 4.1077514 0.04056704
-0.46572232 4.1103592 0.047360778
-0.45480698 4.1103592 0.047360778
-0.44389158 4.1103592 0.047360778
-0.43297625 4.1103592 0.047360778
-0.42569932 4.1103592 0.047360778
-0.4184224 4.1103592 0.047360778
0.73496807 4.1103592 0.047360778
0.74588341 4.1103592 0.047360778
0.72466391 4.1529574 0.041013479
0.73569942 4.1542759 0.044447601
0.74673492 4.1529574 0.041013479
0.75409192 4.1529574 0.041013479
0.74016625 4.1991682 0.041469812
0.015045121 4.247766 0.045447946
0.02632896 4.247766 0.045447946
0.033851523 4.249114 0.048959374
0.063941762 4.247766 0.045447946
0.11659969 4.249114 0.048959374
0.13540608 4.247766 0.045447946
0.14668992 4.247766 0.045447946
0.15421249 4.247766 0.045447946
0.16549632 4.247766 0.045447946
0.17678016 4.249114 0.048959374
0.18430273 4.247766 0.045447946
0.19558656 4.247766 0.045447946
0.20687041 4.249114 0.048959374
0.21439297 4.247766 0.045447946
0.22567682 4.247766 0.045447946
0.23696065 4.249114 0.048959374
0.24448322 4.249114 0.048959374
0.29714113 4.247766 0.045447946
0.31594753 4.249114 0.048959374
0.32723138 4.249114 0.048959374
0.33475393 4.247766 0.045447946
0.34603778 4.247766 0.045447946
0.35732162 4.249114 0.048959374
0.36484417 4.247766 0.045447946
0.37612802 4.247766 0.045447946
0.0038040834 4.2961054 0.045965135
0.034236751 4.2947421 0.042413712
0.045649 4.2961054 0.045965135
0.057061251 4.2961054 0.045965135
0.076081663 4.2961054 0.045965135
0.087493919 4.2961054 0.045965135
0.095102087 4.2961054 0.045965135
0.10271025 4.2961054 0.045965135
0.11285446 4.295651 0.044781327
0.12553474 4.2961054 0.045965135
0.17879191 4.2947421 0.042413712
0.20922458 4.2947421 0.042413712
0.23965725 4.2947421 0.042413712
0.24726541 4.2947421 0.042413712
0.25487357 4.2961054 0.045965135
0.26248175 4.2961054 0.045965135
0.27389401 4.2961054 0.045965135
0.28530625 4.2961054 0.045965135
0.29291442 4.2961054 0.045965135
0.30813074 4.2961054 0.045965135
0.31573892 4.2947421 0.042413712
0.32334709 4.2947421 0.042413712
0.33095524 4.2947421 0.042413712
0.36138791 4.2947421 0.042413712
-0.18084994 4.3441777 0.042901874
-0.17315421 4.3441777 0.042901874
-0.15391484 4.3441777 0.042901874
-0.14237122 4.3441777 0.042901874
-0.13467549 4.3441777 0.042901874
-0.12697974 4.3441777 0.042901874
-0.11543613 4.3441777 0.042901874
-0.10389252 4.3441777 0.042901874
-0.096196778 4.3441777 0.042901874
-0.084653169 4.3441777 0.042901874
-0.073109552 4.3441777 0.042901874
-0.06541381 4.3441777 0.042901874
-0.053870194 4.3441777 0.042901874
-0.042326581 4.3441777 0.042901874
-0.034630839 4.3441777 0.042901874
-0.026935097 4.3441777 0.042901874
-0.015391484 4.3441777 0.042901874
-0.003847871 4.3441777 0.042901874
-0.3775897 4.394763 0.04340148
-0.36591166 4.394763 0.04340148
-0.35423365 4.394763 0.04340148
-0.3464483 4.394763 0.04340148
-0.33477026 4.394763 0.04340148
-0.32309222 4.394763 0.04340148
-0.31530687 4.394763 0.04340148
-0.30752152 4.394763 0.04340148
-0.29584348 4.394763 0.04340148
-0.28416544 4.394763 0.04340148
-0.27638009 4.394763 0.04340148
-0.26470208 4.394763 0.04340148
-0.25302404 4.394763 0.04340148
-0.23745333 4.394763 0.04340148
-0.22966796 4.394763 0.04340148
-0.2063119 4.394763 0.04340148
-0.19463387 4.394763 0.04340148
-0.16738513 4.394763 0.04340148
-0.42536217 4.4465399 0.043912768
-0.41354656 4.4465399 0.043912768
-0.40566948 4.4465399 0.043912768
-0.3977924 4.4465399 0.043912768
-0.38991532 4.4465399 0.043912768
-0.24812794 4.4465399 0.043912768
-0.22449671 4.4465399 0.043912768
-0.21661963 4.4465399 0.043912768
0.83621931 2.6695006 0.052652299
0.8089506 2.6884739 0.053026557
0.81606746 2.6884739 0.053026557
0.82555664 2.6884739 0.053026557
0.83504581 2.6884739 0.053026557
0.8089506 2.6901741 0.057455957
0.81606746 2.6901741 0.057455957
0.82555664 2.6901741 0.057455957
0.83504581 2.6901741 0.057455957
0.795627 2.7085745 0.055636674
0.80518407 2.7085745 0.055636674
-0.57067496 3.3796277 0.050049067
-0.56469935 3.3796277 0.050049067
-0.55573583 3.3796277 0.050049067
-0.54588813 3.675427 0.054429531
-0.53614014 3.675427 0.054429531
-0.52964145 3.675427 0.054429531
-0.52499837 3.7115164 0.054963946
-0.51515466 3.7115164 0.054963946
-0.50859219 3.7115164 0.054963946
-0.50700796 3.7483206 0.05550909
-0.50539184 3.785861 0.056064963
-0.50374293 3.8229489 0.053475976
-0.50206017 3.8620176 0.054022372
-0.50034255 3.9018919 0.054580271
-0.49858895 3.9425974 0.055149615
-0.49679828 3.9841599 0.055730879
-0.48622811 3.9841599 0.055730879
-0.48072559 4.0266075 0.05632472
-0.47510445 4.0686779 0.053571105
0.74505013 4.0686779 0.053571105
-0.46572232 4.112967 0.054154277
-0.45480698 4.112967 0.054154277
-0.44389158 4.112967 0.054154277
-0.43297625 4.112967 0.054154277
-0.42569932 4.112967 0.054154277
-0.4184224 4.112967 0.054154277
0.73496807 4.112967 0.054154277
0.74588341 4.112967 0.054154277
0.73202091 4.1582303 0.054750085
0.36450398 4.2044997 0.055359364
0.015045121 4.2518096 0.055982232
0.02632896 4.2518096 0.055982232
0.033851523 4.2518096 0.055982232
0.041374084 4.2518096 0.055982232
0.056419201 4.2518096 0.055982232
0.063941762 4.2518096 0.055982232
0.11659969 4.2518096 0.055982232
0.12412225 4.2518096 0.055982232
0.13540608 4.2518096 0.055982232
0.14668992 4.2518096 0.055982232
0.15421249 4.2518096 0.055982232
0.16549632 4.2518096 0.055982232
0.17678016 4.2518096 0.055982232
0.18430273 4.2518096 0.055982232
0.19558656 4.2518096 0.055982232
0.20687041 4.2518096 0.055982232
0.21439297 4.2518096 0.055982232
0.22191553 4.2518096 0.055982232
0.26705089 4.2518096 0.055982232
0.27457345 4.2518096 0.055982232
0.28585729 4.2518096 0.055982232
0.29714113 4.2518096 0.055982232
0.30466369 4.2518096 0.055982232
0.31594753 4.2518096 0.055982232
0.32723138 4.2518096 0.055982232
0.33475393 4.2518096 0.055982232
0.34603778 4.2518096 0.055982232
0.35732162 4.2518096 0.055982232
0.37988931 4.2518096 0.055982232
-0.0038040834 4.3001947 0.056619406
0.0038040834 4.3001947 0.056619406
0.049453083 4.3001947 0.056619406
0.076081663 4.3001947 0.056619406
0.087493919 4.3001947 0.056619406
0.095102087 4.3001947 0.056619406
0.10271025 4.3001947 0.056619406
0.11031841 4.3001947 0.056619406
0.23585317 4.3001947 0.056619406
0.24726541 4.3001947 0.056619406
0.25487357 4.3001947 0.056619406
0.26248175 4.3001947 0.056619406
-0.35785201 4.3496933 0.057271004
-0.32706904 4.3496933 0.057271004
-0.31937331 4.3483143 0.053678751
-0.23472014 4.3483143 0.053678751
-0.22702439 4.3483143 0.053678751
-0.21548077 4.3496933 0.057271004
-0.20393717 4.3496933 0.057271004
-0.19624142 4.3496933 0.057271004
-0.18469781 4.3483143 0.053678751
-0.17315421 4.3483143 0.053678751
-0.16545846 4.3483143 0.053678751
-0.15391484 4.3483143 0.053678751
-0.14237122 4.3483143 0.053678751
-0.13467549 4.3483143 0.053678751
-0.12697974 4.3483143 0.053678751
-0.11543613 4.3483143 0.053678751
-0.10389252 4.3483143 0.053678751
-0.096196778 4.3483143 0.053678751
-0.084653169 4.3483143 0.053678751
-0.073109552 4.3483143 0.053678751
-0.06541381 4.3483143 0.053678751
-0.053870194 4.3483143 0.053678751
-0.042326581 4.3483143 0.053678751
-0.034630839 4.3483143 0.053678751
-0.026935097 4.3483143 0.053678751
-0.015391484 4.3483143 0.053678751
-0.003847871 4.3469357 0.050086498
-0.3775897 4.397553 0.05066967
-0.36591166 4.397553 0.05066967
-0.35423365 4.397553 0.05066967
-0.3464483 4.397553 0.05066967
-0.33477026 4.397553 0.05066967
-0.31530687 4.397553 0.05066967
-0.30752152 4.397553 0.05066967
-0.29584348 4.397553 0.05066967
-0.28416544 4.397553 0.05066967
-0.27638009 4.397553 0.05066967
-0.26470208 4.397553 0.05066967
-0.25302404 4.397553 0.05066967
-0.24523868 4.397553 0.05066967
-0.22188261 4.397553 0.05066967
-0.21409726 4.397553 0.05066967
-0.2063119 4.397553 0.05066967
-0.19852655 4.397553 0.05066967
-0.42430183 4.4003429 0.05793798
-0.41651648 4.4003429 0.05793798
-0.40873113 4.4003429 0.05793798
-0.38537505 4.4003429 0.05793798
-0.3775897 4.4003429 0.05793798
-0.36980435 4.4003429 0.05793798
-0.35423365 4.4003429 0.05793798
-0.3464483 4.4003429 0.05793798
-0.33866292 4.4003429 0.05793798
-0.31530687 4.4003429 0.05793798
-0.30752152 4.4003429 0.05793798
-0.29584348 4.4003429 0.05793798
-0.28416544 4.4003429 0.05793798
-0.27638009 4.4003429 0.05793798
-0.26470208 4.4003429 0.05793798
-0.25302404 4.4003429 0.05793798
-0.24523868 4.4003429 0.05793798
-0.42142364 4.4493628 0.05126667
-0.41354656 4.4493628 0.05126667
-0.40566948 4.4493628 0.05126667
-0.3977924 4.4493628 0.05126667
-0.38991532 4.4493628 0.05126667
-0.40566948 4.4521856 0.058620572
-0.3977924 4.4521856 0.058620572
-0.43441871 4.5024066 0.051877856
0.80795276 2.6737213 0.063647807
0.81580454 2.6740029 0.064380847
0.82208604 2.6745656 0.06584692
0.83621931 2.6737213 0.063647807
0.79708916 2.6927245 0.064100176
0.80657828 2.6927245 0.064100176
0.81843978 2.6918745 0.061885476
0.8279289 2.6918745 0.061885476
0.83504581 2.6927245 0.064100176
0.795627 2.7111433 0.062328458
-0.5263921 3.6777558 0.060496569
-0.51515466 3.7138681 0.061090708
-0.50374293 3.8265836 0.06294477
-0.50034255 3.9056017 0.064244509
-0.49858895 3.9463458 0.064914703
-0.49679828 3.9879479 0.065599084
-0.48622811 3.9879479 0.065599084
-0.48072559 4.0304356 0.066298008
-0.47360373 4.0304356 0.066298008
-0.4739047 4.0721173 0.062531672
-0.46430662 4.0738373 0.067011952
0.74505013 4.0725474 0.063651741
-0.46450952 4.1164441 0.063212395
-0.45480698 4.1168785 0.064344645
-0.44389158 4.1168785 0.064344645
-0.42569932 4.1155748 0.060947895
0.73618084 4.1173134 0.065476894
0.74588341 4.1168785 0.064344645
-0.43528882 4.1626248 0.066197358
-0.42302716 4.1621852 0.065052629
0.72466391 4.1621852 0.065052629
0.73447323 4.1617455 0.063907899
0.29383484 4.2098317 0.069248915
0.33102912 4.208499 0.065776527
0.34590685 4.2098317 0.069248915
0.36450398 4.2098317 0.069248915
0.37566227 4.2098317 0.069248915
0.38310114 4.2098317 0.069248915
0.015045121 4.2545056 0.063005209
0.02632896 4.2545056 0.063005209
0.033851523 4.2545056 0.063005209
0.041374084 4.2545056 0.063005209
0.063941762 4.2545056 0.063005209
0.10907713 4.2545056 0.063005209
0.11659969 4.2545056 0.063005209
0.13540608 4.2545056 0.063005209
0.14668992 4.2545056 0.063005209
0.15421249 4.2545056 0.063005209
0.16549632 4.2545056 0.063005209
0.17678016 4.2545056 0.063005209
0.18430273 4.2545056 0.063005209
0.19558656 4.2545056 0.063005209
0.20687041 4.2545056 0.063005209
0.21439297 4.2545056 0.063005209
0.2256768 4.2545056 0.063005209
0.23696065 4.2545056 0.063005209
0.24448322 4.2545056 0.063005209
0.25200579 4.2545056 0.063005209
0.26705089 4.2545056 0.063005209
0.27457345 4.2545056 0.063005209
0.28585729 4.2545056 0.063005209
0.29714113 4.2545056 0.063005209
0.30466369 4.2545056 0.063005209
0.31594753 4.2545056 0.063005209
0.32723138 4.2545056 0.063005209
0.34603778 4.2545056 0.063005209
0.35732162 4.2545056 0.063005209
0.36484417 4.2545056 0.063005209
0.37612802 4.2545056 0.063005209
0.049453083 4.3029213 0.063722253
0.057061251 4.3029213 0.063722253
0.076081663 4.3029213 0.063722253
0.087493919 4.3029213 0.063722253
0.095102087 4.3029213 0.063722253
0.10271025 4.3029213 0.063722253
0.12553474 4.3029213 0.063722253
0.26248175 4.3029213 0.063722253
-0.36554775 4.3524513 0.064455748
-0.35400414 4.3524513 0.064455748
-0.34246051 4.3524513 0.064455748
-0.33476478 4.3524513 0.064455748
-0.32706904 4.3524513 0.064455748
-0.31552541 4.3524513 0.064455748
-0.30398181 4.3524513 0.064455748
-0.29628608 4.3524513 0.064455748
-0.25395948 4.3524513 0.064455748
-0.24241588 4.3524513 0.064455748
-0.23472014 4.3524513 0.064455748
-0.22702439 4.3524513 0.064455748
-0.21548077 4.3524513 0.064455748
-0.20393717 4.3524513 0.064455748
-0.19624142 4.3524513 0.064455748
-0.18469781 4.3524513 0.064455748
-0.17315421 4.3524513 0.064455748
-0.16545846 4.3524513 0.064455748
-0.15391484 4.3524513 0.064455748
-0.14237122 4.3524513 0.064455748
-0.13467549 4.3524513 0.064455748
-0.12697974 4.3524513 0.064455748
-0.11543613 4.3524513 0.064455748
-0.10389252 4.3524513 0.064455748
-0.096196778 4.3524513 0.064455748
-0.084653169 4.3524513 0.064455748
-0.073109552 4.3524513 0.064455748
-0.06541381 4.3524513 0.064455748
-0.053870194 4.3524513 0.064455748
-0.042326581 4.3524513 0.064455748
-0.034630839 4.3524513 0.064455748
-0.026935097 4.3524513 0.064455748
-0.015391484 4.3524513 0.064455748
-0.003847871 4.3524513 0.064455748
0.003847871 4.3524513 0.064455748
-0.41651648 4.4031334 0.065206289
-0.40873113 4.4031334 0.065206289
-0.38537505 4.4031334 0.065206289
-0.3775897 4.4031334 0.065206289
-0.29195079 4.4031334 0.065206289
-0.28416544 4.4031334 0.065206289
-0.27638009 4.4031334 0.065206289
-0.26859474 4.4031334 0.065206289
-0.40566948 4.4550085 0.065974474
-0.3977924 4.4550085 0.065974474
0.81737494 2.6779423 0.074643254
0.82365638 2.6773796 0.073177181
0.83464891 2.6773796 0.073177181
0.79590303 2.6965504 0.074066445
0.80657834 2.6969755 0.075173795
0.81606746 2.6969755 0.075173795
0.82476586 2.6975422 0.076650262
0.83504581 2.6969752 0.075173795
0.74505013 4.076417 0.073732257
0.72405267 4.1207905 0.074535012
0.73496807 4.1207905 0.074535012
0.74588341 4.1207905 0.074535012
0.71730697 4.1661401 0.075355172
0.72466391 4.1661401 0.075355172
0.29383484 4.2124972 0.07619369
0.32359028 4.2124972 0.07619369
0.33474857 4.2124972 0.07619369
0.34590685 4.2124972 0.07619369
0.3682234 4.2124972 0.07619369
0.37566227 4.2124972 0.07619369
0.015045121 4.2585492 0.073539615
0.02632896 4.2585492 0.073539615
0.033851523 4.2585492 0.073539615
0.041374084 4.2585492 0.073539615
0.056419201 4.2585492 0.073539615
0.063941762 4.2585492 0.073539615
0.076479368 4.2589984 0.074710093
0.086509444 4.2598972 0.077051044
0.10531585 4.2585492 0.073539615
0.11659969 4.2585492 0.073539615
0.13415231 4.2581 0.072369136
0.14668992 4.2585492 0.073539615
0.15421249 4.2585492 0.073539615
0.16549632 4.2585492 0.073539615
0.17678016 4.2585492 0.073539615
0.18430273 4.2585492 0.073539615
0.19558656 4.2585492 0.073539615
0.20687041 4.2585492 0.073539615
0.21439297 4.2585492 0.073539615
0.22442305 4.2589984 0.074710093
0.23696065 4.2585492 0.073539615
0.24448322 4.2585492 0.073539615
0.25576705 4.2585492 0.073539615
0.26705089 4.2585492 0.073539615
0.27457345 4.2585492 0.073539615
0.28585729 4.2585492 0.073539615
0.30466369 4.2585492 0.073539615
0.31594753 4.2585492 0.073539615
0.32723138 4.2572012 0.070028186
0.34227648 4.2572012 0.070028186
0.35732162 4.2585492 0.073539615
0.36484417 4.2598972 0.077051044
-0.14075108 4.3083744 0.077927947
-0.13314292 4.3083744 0.077927947
-0.01141225 4.3083744 0.077927947
0.0038040834 4.3070111 0.074376523
0.049453083 4.3070111 0.074376523
0.072277583 4.3056479 0.0708251
0.087493919 4.3056479 0.0708251
0.095102087 4.3070111 0.074376523
0.10271025 4.3083744 0.077927947
0.11031841 4.3056479 0.0708251
0.12553474 4.3070111 0.074376523
0.14075108 4.3083744 0.077927947
0.23204908 4.3056479 0.0708251
-0.36554775 4.3565884 0.075232565
-0.35400414 4.3552094 0.071640253
-0.34246051 4.3565884 0.075232565
-0.33476478 4.3565884 0.075232565
-0.32706904 4.3565884 0.075232565
-0.31552541 4.3565884 0.075232565
-0.30398181 4.3565884 0.075232565
-0.29628608 4.3565884 0.075232565
-0.28602508 4.3561287 0.07403513
-0.27319884 4.3552094 0.071640253
-0.25267687 4.3561287 0.07403513
-0.23472014 4.3565884 0.075232565
-0.22702439 4.3565884 0.075232565
-0.21548077 4.3565884 0.075232565
-0.20393717 4.3565884 0.075232565
-0.19624142 4.3565884 0.075232565
-0.18469781 4.3565884 0.075232565
-0.17315421 4.3565884 0.075232565
-0.16545846 4.3565884 0.075232565
-0.15391484 4.3565884 0.075232565
-0.14237122 4.3552094 0.071640253
-0.13467549 4.3552094 0.071640253
-0.12697974 4.3565884 0.075232565
-0.11543613 4.3565884 0.075232565
-0.10389252 4.3565884 0.075232565
-0.096196778 4.3565884 0.075232565
-0.084653169 4.3565884 0.075232565
-0.073109552 4.3565884 0.075232565
-0.06541381 4.3565884 0.075232565
-0.053870194 4.3565884 0.075232565
-0.042326581 4.3565884 0.075232565
-0.034630839 4.3565884 0.075232565
-0.026935097 4.3565884 0.075232565
-0.016674107 4.3561287 0.07403513
-0.003847871 4.3565884 0.075232565
-0.40354088 4.4068532 0.074897252
-0.26599964 4.407783 0.077320017
-0.24523868 4.4073181 0.076108634
-0.3977924 4.4578314 0.073328376
0.74505013 4.0789967 0.0804528
0.73785162 4.0815763 0.087173223
0.72405267 4.1247025 0.08472532
0.73375529 4.1242676 0.083593048
0.74588341 4.1233983 0.081328511
0.71730697 4.1687765 0.082223535
0.72466391 4.1687765 0.082223535
0.71730697 4.1714129 0.089091897
0.72466391 4.1714129 0.089091897
0.74673492 4.1714129 0.089091897
0.31615141 4.2151632 0.083138466
0.32359028 4.2151632 0.083138466
0.33102912 4.2151632 0.083138466
0.02632896 4.2625933 0.084073901
0.033851523 4.2625933 0.084073901
0.041374084 4.2625933 0.084073901
0.056419201 4.2625933 0.084073901
0.063941762 4.2625933 0.084073901
0.075225607 4.2625933 0.084073901
0.086509444 4.2625933 0.084073901
0.10531585 4.2625933 0.084073901
0.11659969 4.2625933 0.084073901
0.1316448 4.2625933 0.084073901
0.14668992 4.2625933 0.084073901
0.15421249 4.2625933 0.084073901
0.16549632 4.2625933 0.084073901
0.17678016 4.2625933 0.084073901
0.18430273 4.2625933 0.084073901
0.19558656 4.2625933 0.084073901
0.20687041 4.2625933 0.084073901
0.21439297 4.2625933 0.084073901
0.2256768 4.2625933 0.084073901
0.23696065 4.2625933 0.084073901
0.24448322 4.2625933 0.084073901
0.25576705 4.2625933 0.084073901
0.26705089 4.2625933 0.084073901
0.27457345 4.2625933 0.084073901
0.28585729 4.2625933 0.084073901
0.29714113 4.2625933 0.084073901
0.30466369 4.2625933 0.084073901
0.31218624 4.2625933 0.084073901
0.34603778 4.2625933 0.084073901
0.35732162 4.2625933 0.084073901
0.36484417 4.2625933 0.084073901
0.37612802 4.2625933 0.084073901
0.049453083 4.311101 0.085030794
0.095102087 4.311101 0.085030794
0.12553474 4.311101 0.085030794
0.14075108 4.311101 0.085030794
0.73425233 4.084156 0.093893647
0.72405267 4.1286139 0.094915748
0.73132962 4.1286139 0.094915748
0.71730697 4.1740494 0.095960259
0.72466391 4.1740494 0.095960259
0.31615141 4.2178292 0.090083241
0.32359028 4.2178292 0.090083241
0.33474857 4.2178292 0.090083241
0.34590685 4.2178292 0.090083241
0.31218624 4.2652888 0.091096878
