# .PCD v0.7 - Point Cloud Data file format
VERSION 0.7
FIELDS x y z
SIZE 4 4 4
TYPE F F F
COUNT 1 1 1
WIDTH 862
HEIGHT 1
VIEWPOINT 0 0 0 1 0 0 0
POINTS 862
DATA ascii
0.8309834 2.7060714 -0.9858861
0.8309834 2.7090199 -0.97820503
0.83372593 2.7109857 -0.97308433
-0.68942618 2.8824735 -0.94271553
-0.72452903 2.9096668 -0.94549412
-0.71870947 2.9096668 -0.94549412
-0.70416069 2.9096668 -0.94549412
-0.69543147 2.9096668 -0.94549412
-0.68670219 2.9096668 -0.94549412
-0.67506313 2.9096668 -0.94549412
-0.66342413 2.9096668 -0.94549412
-0.65469486 2.9096668 -0.94549412
-0.64596558 2.9096668 -0.94549412
-0.72452903 2.9117522 -0.94006115
-0.71870947 2.9117522 -0.94006115
-0.70416069 2.9117522 -0.94006115
-0.69543147 2.9117522 -0.94006115
-0.68670219 2.9117522 -0.94006115
-0.67506313 2.9117522 -0.94006115
-0.66342413 2.9117522 -0.94006115
-0.65469486 2.9117522 -0.94006115
-0.64596558 2.9117522 -0.94006115
-0.6350081 2.9380381 -0.94649434
-0.619353 2.939441 -0.94284058
0.44518623 2.9973731 -0.94575846
0.31052324 3.0298228 -0.94022006
0.35875988 3.0298228 -0.94022006
0.36478946 3.0298228 -0.94022006
0.37383384 3.0298228 -0.94022006
0.41604084 3.027662 -0.94584918
0.42508522 3.027662 -0.94584918
0.4341296 3.0298228 -0.94022006
0.44618875 3.0298228 -0.94022006
-0.15515429 3.0595925 -0.94310129
0.36811116 3.0595925 -0.94310129
0.37419567 3.0595925 -0.94310129
0.38433644 3.0588658 -0.94499475
0.39549136 3.0585024 -0.94594145
0.40461805 3.0585022 -0.94594145
0.41374481 3.0585022 -0.94594145
0.42591375 3.0585022 -0.94594145
0.43504047 3.0595925 -0.94310129
0.4441672 3.0595925 -0.94310129
0.37456405 3.0899086 -0.94603503
0.38684481 3.0899086 -0.94603503
0.39605543 3.0899086 -0.94603503
0.40526602 3.0899086 -0.94603503
0.4144766 3.0899086 -0.94603503
0.42368722 3.0899086 -0.94603503
0.43596798 3.0899086 -0.94603503
0.31316012 3.0921092 -0.94030249
0.32237071 3.0921092 -0.94030249
0.36535347 3.0921092 -0.94030249
0.37456405 3.0921092 -0.94030249
0.38684481 3.0921092 -0.94030249
0.39605543 3.0921092 -0.94030249
0.40526602 3.0921092 -0.94030249
0.4144766 3.0921092 -0.94030249
0.42368722 3.0921092 -0.94030249
0.43596798 3.0921092 -0.94030249
0.40592587 3.1230068 -0.94323742
0.41522187 3.1230068 -0.94323742
0.42451787 3.1230068 -0.94323742
0.4338139 3.1230068 -0.94323742
-0.72452903 2.9138377 -0.93462813
-0.71579969 2.9138377 -0.93462813
-0.70416069 2.9138377 -0.93462813
-0.69543147 2.9138377 -0.93462813
-0.68670219 2.9138377 -0.93462813
-0.67506313 2.9138377 -0.93462813
-0.66342413 2.9138377 -0.93462813
-0.65469486 2.9138377 -0.93462813
-0.64596558 2.9138377 -0.93462813
-0.63723636 2.9138377 -0.93462813
-0.62559736 2.9138377 -0.93462813
-0.6197778 2.9138377 -0.93462813
-0.61543924 2.9429474 -0.93370599
-0.60467637 2.9436486 -0.9318791
-0.60707521 2.9718649 -0.93461043
0.27388415 3.0012991 -0.93553072
0.28384358 3.0005853 -0.93739033
0.3077462 3.0005853 -0.93739033
0.35555142 3.0005853 -0.93739033
0.36451492 3.0005853 -0.93739033
0.37347838 3.0005853 -0.93739033
0.20500565 3.0319836 -0.93459094
0.21405001 3.0319836 -0.93459094
0.22309437 3.0319836 -0.93459094
0.23515353 3.0319836 -0.93459094
0.24419791 3.0319836 -0.93459094
0.25324225 3.0319836 -0.93459094
0.26228663 3.0319836 -0.93459094
0.28339016 3.0319836 -0.93459094
0.29544932 3.0319836 -0.93459094
0.30449367 3.0319836 -0.93459094
0.31353801 3.0319836 -0.93459094
0.32258239 3.0319836 -0.93459094
0.34670073 3.0319836 -0.93459094
0.35574508 3.0319836 -0.93459094
0.094309472 3.0639534 -0.93174058
0.1034362 3.0639534 -0.93174058
0.12473188 3.0639534 -0.93174058
0.13284452 3.0632267 -0.93363404
0.14906982 3.0639534 -0.93174058
0.15515429 3.0639534 -0.93174058
0.16428101 3.0628633 -0.93458074
0.2068724 3.0617731 -0.9374209
0.21599911 3.0628633 -0.93458074
0.22512583 3.0628633 -0.93458074
0.23425256 3.0628633 -0.93458074
0.2423652 3.0632267 -0.93363404
0.25554824 3.0639534 -0.93174058
0.26467496 3.0639534 -0.93174058
0.27380168 3.0639534 -0.93174058
0.28698474 3.0632267 -0.93363404
0.29509738 3.0628633 -0.93458074
0.30321002 3.0625 -0.9355275
0.31639308 3.0617731 -0.9374209
0.3255198 3.0617731 -0.9374209
0.36202669 3.0617731 -0.9374209
0.15658005 3.0943098 -0.93456995
0.16579065 3.0943098 -0.93456995
0.17500123 3.0943098 -0.93456995
0.18421182 3.0943098 -0.93456995
0.19649261 3.0943098 -0.93456995
0.20570321 3.0943098 -0.93456995
0.21491379 3.0943098 -0.93456995
0.22412439 3.0943098 -0.93456995
0.23333499 3.0943098 -0.93456995
0.24561578 3.0943098 -0.93456995
0.25482637 3.0943098 -0.93456995
0.26403695 3.0943098 -0.93456995
0.27631775 3.0943098 -0.93456995
0.28552833 3.0943098 -0.93456995
0.29473892 3.0943098 -0.93456995
0.30394951 3.0943098 -0.93456995
0.31316012 3.0943098 -0.93456995
0.32237071 3.0943098 -0.93456995
0.34079188 3.0943098 -0.93456995
0.36535347 3.0943098 -0.93456995
0.37456405 3.0943098 -0.93456995
0.38684481 3.0943098 -0.93456995
0.39605543 3.0943098 -0.93456995
0.43903819 3.0943098 -0.93456995
0.043381389 3.1274488 -0.93166596
0.055776071 3.1274488 -0.93166596
0.065072082 3.1274488 -0.93166596
0.077466764 3.1274488 -0.93166596
0.17352556 3.1274488 -0.93166596
0.18592024 3.1263382 -0.93455887
0.19521625 3.1263382 -0.93455887
0.20451225 3.1263382 -0.93455881
0.21380827 3.1263382 -0.93455887
0.2231043 3.1274488 -0.93166596
0.23549896 3.1274488 -0.93166596
0.24479498 3.1274488 -0.93166596
0.25409099 3.1274488 -0.93166596
0.26648569 3.1274488 -0.93166596
0.27578169 3.1274488 -0.93166596
0.28507769 3.1274488 -0.93166596
0.29437372 3.1263382 -0.93455887
0.30676839 3.1274488 -0.93166596
0.31606442 3.1263382 -0.93455881
0.32536042 3.1263382 -0.93455887
0.33465642 3.1263382 -0.93455887
0.34395245 3.1252277 -0.93745172
0.35221556 3.125968 -0.93552321
0.39662984 3.1263382 -0.93455887
0.40592587 3.1263382 -0.93455887
0.41522187 3.1263382 -0.93455887
0.42451787 3.1263382 -0.93455887
0.4338139 3.1263382 -0.93455887
0.19078827 3.1589658 -0.93454725
0.42849171 3.1589658 -0.93454725
0.43474704 3.1589658 -0.93454725
-0.034729533 3.1933408 -0.9315877
-0.025257841 3.1933408 -0.9315877
-0.01578615 3.1933408 -0.9315877
-0.0063144602 3.1933408 -0.9315877
0.14838982 3.1933408 -0.9315877
0.16417596 3.1933408 -0.9315877
0.17680489 3.1933408 -0.9315877
0.18627657 3.1933408 -0.9315877
0.19574827 3.1933408 -0.9315877
0.20521995 3.1933408 -0.9315877
0.21153441 3.1933408 -0.9315877
0.29993686 3.1933408 -0.9315877
0.30279791 3.2260859 -0.93452269
0.33467638 3.2617679 -0.93150544
0.37651095 3.2617679 -0.93150544
-0.60707521 2.9750488 -0.9263165
-0.61648828 3.0055821 -0.92437321
-0.60354108 3.0048683 -0.92623281
-0.61501694 3.0352252 -0.92614728
-0.60597259 3.0352249 -0.92614734
-0.61149043 3.0683146 -0.92037988
-0.60540599 3.0683146 -0.92037988
-0.0060844822 3.066134 -0.9260602
0.015211205 3.066134 -0.9260602
0.076056026 3.066134 -0.9260602
-0.61096925 3.0987108 -0.92310488
-0.024561577 3.0976105 -0.92597115
-0.0061403941 3.0976105 -0.92597115
0.005116995 3.0979774 -0.92501575
0.015350985 3.0976105 -0.92597115
0.024561577 3.0976105 -0.92597115
0.035818964 3.0972435 -0.92692661
0.046052955 3.0965102 -0.92883742
0.055263549 3.0965102 -0.92883742
0.064474143 3.0965102 -0.92883742
0.072661333 3.0972435 -0.92692661
0.085965529 3.0976105 -0.92597115
0.095176108 3.0976105 -0.92597115
0.1054101 3.0979774 -0.92501575
0.1156441 3.0979774 -0.92501575
0.12587808 3.0976105 -0.92597115
0.13508868 3.0976105 -0.92597115
0.14429927 3.0976105 -0.92597115
0.15350986 3.0976105 -0.92597115
0.16476725 3.0972435 -0.92692661
0.17500123 3.0965102 -0.92883742
0.21798399 3.0965102 -0.92883742
0.22412439 3.0965102 -0.92883742
0.23333499 3.0965102 -0.92883742
0.24561578 3.0965102 -0.92883742
0.25482637 3.0965102 -0.92883742
0.26403695 3.0965102 -0.92883742
0.27631775 3.0965102 -0.92883742
0.28552833 3.0965102 -0.92883742
0.30394951 3.0965102 -0.92883742
-0.61043811 3.1296697 -0.92588025
-0.52987266 3.1296697 -0.92588025
-0.086762778 3.1296697 -0.92588025
-0.065072082 3.1296697 -0.92588025
-0.058874741 3.1296697 -0.92588025
-0.024789365 3.1296697 -0.92588025
-0.015493353 3.1296697 -0.92588025
-0.0061973413 3.1296697 -0.92588025
0.0030986706 3.1296697 -0.92588025
0.024789365 3.1296697 -0.92588025
0.034085378 3.1296697 -0.92588025
0.043381389 3.1296697 -0.92588025
0.055776071 3.1296697 -0.92588025
0.065072082 3.1296697 -0.92588025
0.074368089 3.1296697 -0.92588025
0.086762778 3.1296697 -0.92588025
0.096058793 3.1296697 -0.92588025
0.10225613 3.1296697 -0.92588025
0.11465082 3.1296697 -0.92588025
0.12394683 3.1296697 -0.92588025
0.13634151 3.1296697 -0.92588025
0.14563753 3.1296697 -0.92588025
0.15493354 3.1296697 -0.92588025
0.16422954 3.1296697 -0.92588025
0.17352556 3.1296697 -0.92588025
0.18282157 3.1296697 -0.92588025
0.19521625 3.1296697 -0.92588025
0.20451227 3.1296697 -0.92588025
0.21380827 3.1296697 -0.92588025
0.2231043 3.1296697 -0.92588025
0.23549896 3.1296697 -0.92588025
0.24479498 3.1296697 -0.92588025
0.25409099 3.1296697 -0.92588025
0.26648569 3.1296697 -0.92588025
0.27578169 3.1296697 -0.92588025
0.28507769 3.1296697 -0.92588025
0.29437372 3.1296697 -0.92588025
0.30366972 3.1296697 -0.92588025
0.31606442 3.1296697 -0.92588025
0.32536042 3.1296697 -0.92588025
0.33465642 3.1296697 -0.92588025
0.34395245 3.1296697 -0.92588025
0.35324845 3.1296697 -0.92588025
0.36564314 3.1296697 -0.92588025
0.37493914 3.1296697 -0.92588025
0.38733384 3.1296697 -0.92588025
0.39662984 3.1296697 -0.92588025
0.40592587 3.1296697 -0.92588025
0.41522187 3.1296697 -0.92588025
-0.61043811 3.1318905 -0.92009455
-0.60424078 3.1318905 -0.92009455
0.0092960121 3.1318905 -0.92009455
0.015493353 3.1318905 -0.92009455
0.024789365 3.1318905 -0.92009455
0.034085378 3.1318905 -0.92009455
0.043381389 3.1318905 -0.92009455
0.0526774 3.1318905 -0.92009455
0.065072082 3.1318905 -0.92009455
0.074368089 3.1318905 -0.92009455
0.086762778 3.1318905 -0.92009455
-0.61615229 3.163449 -0.92286748
-0.60572672 3.1627018 -0.92481416
-0.59425855 3.1623282 -0.92578745
-0.58487552 3.1623282 -0.92578745
-0.5754925 3.1623282 -0.92578745
-0.56610948 3.1623282 -0.92578745
-0.55568391 3.1619546 -0.92676073
-0.54421574 3.1623282 -0.92578745
-0.10634101 3.1623282 -0.92578739
-0.093830302 3.1623282 -0.92578745
-0.084447272 3.1623282 -0.92578745
-0.076106794 3.1619546 -0.92676073
-0.065681212 3.1623282 -0.92578745
-0.057340741 3.1619546 -0.92676073
-0.046915151 3.1612074 -0.92870736
-0.034404442 3.1612074 -0.92870736
-0.025021413 3.1612074 -0.92870736
-0.015638383 3.1612074 -0.92870736
-0.0062553533 3.1612074 -0.92870736
0.0031276767 3.1623282 -0.92578745
0.015638383 3.163449 -0.92286748
0.025021413 3.163449 -0.92286748
0.057340741 3.1627018 -0.92481416
0.065681212 3.163449 -0.92286748
0.078191914 3.163449 -0.92286748
0.084447272 3.163449 -0.92286748
0.093830302 3.163449 -0.92286748
0.106341 3.163449 -0.92286748
0.11572403 3.163449 -0.92286748
0.12614962 3.1627018 -0.92481416
0.1344901 3.163449 -0.92286748
0.14283057 3.1619546 -0.92676073
0.15534128 3.1619546 -0.92676073
0.16576687 3.1612074 -0.92870736
0.17514989 3.1612074 -0.92870736
0.18453293 3.1612074 -0.92870736
0.19391595 3.1612074 -0.92870736
0.20642665 3.1612074 -0.92870736
0.21580969 3.1623282 -0.92578745
0.22415017 3.1627018 -0.92481416
0.23457575 3.163449 -0.92286748
0.24395877 3.163449 -0.92286748
0.25646949 3.163449 -0.92286748
0.26585251 3.163449 -0.92286748
0.27523553 3.163449 -0.92286748
0.28461859 3.1623282 -0.92578745
0.29295903 3.1619546 -0.92676073
0.30755487 3.1627018 -0.92481405
0.31589535 3.1623282 -0.92578745
0.32527837 3.1623282 -0.92578745
0.33466139 3.1623282 -0.92578745
0.34404445 3.163449 -0.92286748
0.35551262 3.1627018 -0.92481416
0.40972564 3.163449 -0.92286748
0.41598099 3.163449 -0.92286748
0.42432144 3.1619546 -0.92676073
-0.16417596 3.1956036 -0.92569256
-0.15470427 3.1956036 -0.92569256
-0.14523259 3.1956036 -0.92569256
-0.13576089 3.1956036 -0.92569256
-0.1262892 3.1956036 -0.92569256
-0.11366029 3.1956036 -0.92569256
-0.10418859 3.1956036 -0.92569256
-0.094716907 3.1956036 -0.92569256
-0.085245214 3.1956036 -0.92569256
-0.075773522 3.1956036 -0.92569256
-0.06630183 3.1956036 -0.92569256
-0.059987374 3.1956036 -0.92569256
0.0031572301 3.1956036 -0.92569256
0.059987374 3.1956036 -0.92569256
0.10418859 3.1956036 -0.92569256
0.11681751 3.1956036 -0.92569256
0.1262892 3.1956036 -0.92569256
0.13576089 3.1956036 -0.92569256
0.14523259 3.1956036 -0.92569256
0.15470427 3.1956036 -0.92569256
0.16417596 3.1956036 -0.92569256
0.17680489 3.1956036 -0.92569256
0.18627657 3.1956036 -0.92569256
0.19259104 3.1956036 -0.92569256
0.20521995 3.1956036 -0.92569256
0.21469164 3.1956036 -0.92569256
0.22416334 3.1956036 -0.92569256
0.23363502 3.1956036 -0.92569256
0.24310672 3.1956036 -0.92569256
0.25573564 3.1956036 -0.92569256
0.26520732 3.1956036 -0.92569256
0.27467901 3.1956036 -0.92569256
0.28415072 3.1956036 -0.92569256
0.2936224 3.1956036 -0.92569256
0.30625132 3.1956036 -0.92569256
0.315723 3.1956036 -0.92569256
0.32519472 3.1956036 -0.92569256
0.3346664 3.1956036 -0.92569256
0.36939591 3.1956036 -0.92569256
0.42622608 3.1956036 -0.92569256
0.43254054 3.1956036 -0.92569256
-0.063746929 3.2283704 -0.92857134
-0.054184891 3.2283704 -0.92857134
-0.04462285 3.2283704 -0.92857134
-0.022311425 3.2283704 -0.92857134
-0.015936732 3.2283704 -0.92857134
-0.006374693 3.2283704 -0.92857134
0.0031873465 3.2283704 -0.92857134
0.10518243 3.2283704 -0.92857134
0.11793182 3.2283704 -0.92857134
0.12430651 3.2283704 -0.92857134
0.13386855 3.2283704 -0.92857134
0.14661793 3.2283704 -0.92857134
0.15617998 3.2283704 -0.92857134
0.16574201 3.2283704 -0.92857134
0.17530406 3.2283704 -0.92857134
0.1848661 3.2283704 -0.92857134
0.19442813 3.2283704 -0.92857134
0.20399018 3.2283704 -0.92857134
0.21673957 3.2283704 -0.92857134
0.2263016 3.2283704 -0.92857134
0.2326763 3.2283704 -0.92857134
0.24542567 3.2283704 -0.92857134
0.2932359 3.2283704 -0.92857134
0.30598527 3.2283704 -0.92857134
0.31554729 3.2283704 -0.92857134
0.32510936 3.2283704 -0.92857134
0.33467138 3.2283704 -0.92857134
0.34423339 3.2283704 -0.92857134
0.35379547 3.2283704 -0.92857134
0.36335748 3.2283704 -0.92857134
0.37610686 3.2283704 -0.92857134
-0.26454976 3.230655 -0.92262006
-0.25498772 3.230655 -0.92262006
-0.24542567 3.230655 -0.92262006
-0.23905098 3.230655 -0.92262006
0.028686117 3.230655 -0.92262006
0.047810197 3.230655 -0.92262006
0.054184891 3.230655 -0.92262006
0.063746929 3.230655 -0.92262006
0.076496318 3.230655 -0.92262006
0.086058356 3.230655 -0.92262006
0.095620394 3.230655 -0.92262006
0.10518243 3.230655 -0.92262006
0.11474448 3.230655 -0.92262006
0.12430651 3.230655 -0.92262006
0.13386855 3.230655 -0.92262006
0.14661793 3.230655 -0.92262006
0.15617998 3.230655 -0.92262006
0.16574201 3.230655 -0.92262006
0.17530406 3.230655 -0.92262006
0.20399018 3.230655 -0.92262006
0.21673957 3.230655 -0.92262006
0.2263016 3.230655 -0.92262006
0.23586364 3.230655 -0.92262006
0.24542567 3.230655 -0.92262006
0.25498772 3.230655 -0.92262006
0.26454976 3.230655 -0.92262006
0.2932359 3.230655 -0.92262006
0.3091726 3.230655 -0.92262006
0.31554729 3.230655 -0.92262006
0.321922 3.230655 -0.92262006
0.34423339 3.230655 -0.92262006
0.35379547 3.230655 -0.92262006
0.36335748 3.230655 -0.92262006
0.37929422 3.230655 -0.92262006
0.38566893 3.230655 -0.92262006
0.39204362 3.230655 -0.92262006
-0.041834548 3.2640743 -0.92549682
-0.022526296 3.2640743 -0.92549682
-0.0064360844 3.2640743 -0.92549682
0.0032180422 3.2640743 -0.92549682
0.15446603 3.2640743 -0.92549682
0.16412015 3.2640743 -0.92549682
0.17377429 3.2640743 -0.92549682
0.18664646 3.2640743 -0.92549682
0.19630058 3.2640743 -0.92549682
0.21560884 3.2640743 -0.92549682
0.22204491 3.2640743 -0.92549682
0.24135317 3.2640743 -0.92549682
0.29927793 3.2640743 -0.92549682
0.30571401 3.2640743 -0.92549682
0.32502228 3.2640743 -0.92549682
0.33467638 3.2640743 -0.92549682
0.34433052 3.2640743 -0.92549682
0.35398465 3.2640743 -0.92549682
0.36363879 3.2640743 -0.92549682
0.37329292 3.2640743 -0.92549682
0.38616508 3.2640743 -0.92549682
0.39581919 3.2640743 -0.92549682
-0.035742674 3.3004718 -0.92236209
-0.025994673 3.3004718 -0.92236209
-0.016246671 3.3004718 -0.92236209
-0.0064986683 3.3004718 -0.92236209
0.0032493342 3.3004718 -0.92236209
-0.27523553 3.1656909 -0.91702759
0.0093830302 3.1656909 -0.91702759
0.015638383 3.1656909 -0.91702759
0.025021413 3.1656909 -0.91702759
0.034404442 3.1656909 -0.91702759
0.043787472 3.1656909 -0.91702759
0.053170502 3.1656909 -0.91702759
0.065681212 3.1656909 -0.91702759
0.075064242 3.1656909 -0.91702759
0.084447272 3.1656909 -0.91702759
0.093830302 3.1656909 -0.91702759
-0.27467901 3.1978667 -0.91979754
-0.26520732 3.1978667 -0.91979754
0.0094716903 3.1978667 -0.91979754
0.01578615 3.1978667 -0.91979754
0.025257841 3.1978667 -0.91979754
0.034729533 3.1978667 -0.91979754
0.044201225 3.1978667 -0.91979754
0.056830145 3.1978667 -0.91979754
0.06630183 3.1978667 -0.91979754
0.075773522 3.1978667 -0.91979754
0.085245214 3.1978667 -0.91979754
0.094716907 3.1978667 -0.91979754
0.11050306 3.1978667 -0.91979754
0.23679225 3.1978667 -0.91979754
0.24942118 3.1978667 -0.91979754
0.25573564 3.1978667 -0.91979754
0.26520732 3.1978667 -0.91979754
0.27467901 3.1978667 -0.91979754
0.28099349 3.1978667 -0.91979754
0.38202485 3.1978667 -0.91979754
0.40412545 3.1978667 -0.91979754
0.41675436 3.1978667 -0.91979754
0.42622608 3.1978667 -0.91979754
-0.2936224 3.2001295 -0.91390252
-0.28415072 3.2001295 -0.91390252
-0.27467901 3.2001295 -0.91390252
0.0094716903 3.2001295 -0.91390252
0.01578615 3.2001295 -0.91390252
0.022100611 3.2001295 -0.91390252
0.034729533 3.2001295 -0.91390252
0.041043993 3.2001295 -0.91390252
-0.27092445 3.2329395 -0.91666877
-0.26454976 3.2329395 -0.91666877
-0.25180036 3.2329395 -0.91666877
0.0095620397 3.2340817 -0.91369313
0.015936732 3.2340817 -0.91369313
0.025498772 3.2340817 -0.91369319
0.035060812 3.2340817 -0.91369313
0.044622853 3.2340817 -0.91369319
0.054184891 3.2340817 -0.91369313
0.063746929 3.2340817 -0.91369313
0.076496318 3.2340817 -0.91369313
0.086058356 3.2340817 -0.91369313
0.095620394 3.2329395 -0.91666877
0.10518243 3.2329395 -0.91666877
0.11474448 3.2329395 -0.91666877
0.12430651 3.2329395 -0.91666877
0.13386855 3.2329395 -0.91666877
0.14343059 3.2329395 -0.91666877
0.20399018 3.2329395 -0.91666877
0.2263016 3.2329395 -0.91666877
0.2326763 3.2329395 -0.91666877
0.24542567 3.2329395 -0.91666877
0.25498772 3.2329395 -0.91666877
0.26454976 3.2329395 -0.91666877
0.27411181 3.2340817 -0.91369313
0.28367382 3.2340817 -0.91369313
0.29004854 3.2329395 -0.91666877
0.3091726 3.2329395 -0.91666877
-0.38616508 3.267534 -0.91648388
-0.37329292 3.2675338 -0.91648388
-0.36363879 3.267534 -0.91648388
-0.35398465 3.2675338 -0.91648388
-0.34433052 3.267534 -0.91648388
-0.33467638 3.267534 -0.91648388
-0.32502228 3.267534 -0.91648388
-0.31215009 3.2663808 -0.91948819
-0.30571401 3.267534 -0.91648388
-0.26387948 3.2675338 -0.91648388
-0.25422534 3.267534 -0.91648388
-0.2456439 3.2671497 -0.9174853
-0.17055625 3.2663808 -0.91948819
-0.16412015 3.2663808 -0.91948819
0.0096541271 3.2686872 -0.91347957
0.016090212 3.2686872 -0.91347957
0.025744338 3.2686872 -0.91347957
0.035398465 3.2686872 -0.91347957
0.064360842 3.2686872 -0.91347957
0.074014969 3.2686872 -0.91347957
0.083669096 3.2686872 -0.91347957
0.096541271 3.2675338 -0.91648388
0.1061954 3.267534 -0.91648388
0.11584952 3.267534 -0.91648388
0.12550364 3.267534 -0.91648388
0.13515778 3.267534 -0.91648388
0.1448119 3.267534 -0.91648388
0.15446603 3.2675338 -0.91648388
0.16412015 3.267534 -0.91648388
0.17377427 3.2675338 -0.91648388
0.18664646 3.267534 -0.91648388
0.19630058 3.267534 -0.91648388
0.2059547 3.267534 -0.91648388
0.21560884 3.267534 -0.91648388
0.22526295 3.2675338 -0.91648388
0.23491709 3.267534 -0.91648388
0.24457121 3.267534 -0.91648388
0.25422534 3.267534 -0.91648388
0.26387948 3.267534 -0.91648388
0.27675164 3.2686872 -0.91347957
0.28640577 3.2686872 -0.91347957
0.29605991 3.2675338 -0.91648388
0.30571401 3.267534 -0.91648388
0.31215009 3.267534 -0.91648388
0.33789444 3.267534 -0.91648388
0.34433052 3.267534 -0.91648388
0.35398465 3.2675338 -0.91648388
0.36363879 3.267534 -0.91648388
0.37329292 3.267534 -0.91648388
0.38616508 3.2675338 -0.91648388
0.39581919 3.267534 -0.91648388
0.4022553 3.2686872 -0.91347957
-0.52314281 3.3039651 -0.91326159
-0.51014549 3.3039651 -0.91326159
-0.50364679 3.3039651 -0.91326159
-0.49389881 3.3039651 -0.91326159
-0.4841508 3.3039651 -0.91326159
-0.47440279 3.3039651 -0.91326159
-0.46465477 3.3039651 -0.91326159
-0.45490676 3.3039651 -0.91326159
-0.44515878 3.3039651 -0.91326159
-0.43541077 3.3039651 -0.91326159
-0.42566279 3.3039651 -0.91326159
-0.41591477 3.3039651 -0.91326159
-0.40616676 3.3039651 -0.91326159
-0.39641875 3.3039651 -0.91326159
-0.38342145 3.3039651 -0.91326159
-0.37367344 3.3051295 -0.91022807
-0.36284232 3.304353 -0.91225046
-0.35417742 3.3039651 -0.91326159
-0.34551254 3.3035767 -0.91427279
-0.33468142 3.3039651 -0.91326159
-0.32493341 3.3028007 -0.91629511
-0.2664454 3.3028007 -0.91629511
-0.25453117 3.3035767 -0.91427279
-0.24370006 3.3028007 -0.91629511
-0.17546405 3.3028007 -0.91629511
-0.16571604 3.3028007 -0.91629511
-0.1234747 3.3028007 -0.91629511
-0.1137267 3.3028007 -0.91629511
-0.10397869 3.3028007 -0.91629511
-0.083399571 3.3035767 -0.91427279
-0.055238679 3.3051295 -0.91022807
-0.044407565 3.3035767 -0.91427279
-0.035742674 3.3039651 -0.91326159
-0.024911562 3.3035767 -0.91427279
-0.016246671 3.3028007 -0.91629511
-0.0064986683 3.3039651 -0.91326159
0.0032493342 3.3039651 -0.91326159
0.16571604 3.3039651 -0.91326159
0.19171071 3.3051295 -0.91022807
-0.37078011 3.3399348 -0.91303921
-0.36421761 3.3399348 -0.91303921
-0.35765514 3.3399348 -0.91303921
-0.25484297 3.3391507 -0.91508132
-0.18374944 3.3387589 -0.91610247
-0.17390572 3.3387589 -0.91610247
-0.14109331 3.3387589 -0.91610247
-0.13453083 3.3387589 -0.91610247
-0.12468711 3.3387589 -0.91610241
-0.11484339 3.3387589 -0.91610247
-0.10499967 3.3387589 -0.91610247
-0.095155954 3.3387589 -0.91610247
-0.088593476 3.3387589 -0.91610247
-0.075468518 3.3387589 -0.91610247
-0.065624796 3.3387589 -0.91610247
-0.055781078 3.3399348 -0.91303921
-0.047031105 3.3391507 -0.91508132
-0.036093637 3.3399348 -0.91303921
-0.027343666 3.3391507 -0.91508132
-0.016406199 3.3387589 -0.91610247
-0.58246565 3.2733002 -0.90146244
-0.5760296 3.2733002 -0.90146244
-0.56530279 3.2725315 -0.90346527
-0.37007487 3.2709937 -0.907471
-0.36363879 3.2709937 -0.907471
-0.5621348 3.3074584 -0.9041611
-0.55563617 3.3074584 -0.9041611
-0.54913747 3.3074584 -0.9041611
-0.51014549 3.3074584 -0.9041611
-0.50364679 3.3074584 -0.9041611
-0.49389881 3.3074584 -0.9041611
-0.46465477 3.3074584 -0.9041611
-0.43216145 3.3074584 -0.9041611
-0.42566279 3.3074584 -0.9041611
-0.41591477 3.3074584 -0.9041611
-0.40616676 3.3074584 -0.9041611
-0.39641875 3.3074584 -0.9041611
-0.38342142 3.3074584 -0.9041611
-0.37367344 3.3074584 -0.9041611
-0.34767875 3.3074584 -0.9041611
-0.081233352 3.3074584 -0.9041611
-0.0064986683 3.3074584 -0.9041611
0.0032493342 3.3074584 -0.9041611
-0.55452955 3.3434625 -0.90384924
-0.54577953 3.3430703 -0.90487033
-0.53484207 3.3422866 -0.90691257
-0.52609211 3.3430703 -0.90487033
-0.51515466 3.3446383 -0.90078592
-0.50421721 3.3438542 -0.90282816
-0.49546722 3.3434625 -0.90384924
-0.48562348 3.3434625 -0.90384924
-0.47577977 3.3434625 -0.90384924
-0.46593606 3.3434625 -0.90384924
-0.4134362 3.3434625 -0.90384924
-0.4035925 3.3434625 -0.90384924
-0.39484254 3.3438542 -0.90282816
-0.3729676 3.3438542 -0.90282816
-0.36421761 3.3434625 -0.90384924
-0.3543739 3.3434625 -0.90384924
-0.33796769 3.3422866 -0.90691257
-0.17390572 3.3422866 -0.90691257
-0.16734323 3.3422866 -0.90691257
-0.12468711 3.3422866 -0.90691257
-0.11484339 3.3422866 -0.90691257
-0.10390592 3.3430703 -0.90487033
-0.095155954 3.3422866 -0.90691257
-0.08421848 3.3430703 -0.90487033
-0.065624796 3.3434625 -0.90384924
-0.055781078 3.3446383 -0.90078592
-0.04484361 3.3438542 -0.90282816
-0.036093637 3.3434625 -0.90384924
-0.026249919 3.3434625 -0.90384924
-0.016406199 3.3434625 -0.90384924
-0.0098437192 3.3434625 -0.90384924
-0.34463283 3.3778045 -0.90971828
-0.33469152 3.3778045 -0.90971828
-0.32475019 3.3778045 -0.90971828
-0.31480885 3.3778045 -0.90971828
-0.28167108 3.3778045 -0.90971828
-0.25516087 3.3778045 -0.90971828
-0.24190575 3.3778045 -0.90971828
-0.23527819 3.3778045 -0.90971828
-0.22202308 3.3778045 -0.90971828
-0.21539553 3.3778045 -0.90971828
-0.2054542 3.3778045 -0.90971828
-0.19551286 3.3778045 -0.90971828
-0.18557152 3.3778045 -0.90971828
-0.1756302 3.3778045 -0.90971828
-0.16568887 3.3778045 -0.90971828
-0.15574753 3.3778045 -0.90971828
-0.14580619 3.3778045 -0.90971828
-0.13586487 3.3778045 -0.90971828
-0.12592353 3.3778045 -0.90971828
-0.1159822 3.3778045 -0.90971828
-0.10935465 3.3778045 -0.90971828
-0.096099541 3.3778045 -0.90971828
-0.089471988 3.3778045 -0.90971828
-0.076216877 3.3778045 -0.90971828
-0.56002837 3.3801796 -0.90353096
-0.55340081 3.3801796 -0.90353096
-0.5401457 3.3801796 -0.90353096
-0.53351814 3.3801796 -0.90353096
-0.5235768 3.3801796 -0.90353096
-0.45398751 3.3801796 -0.90353096
-0.44404617 3.3801796 -0.90353096
-0.43410483 3.3801796 -0.90353096
-0.42416349 3.3801796 -0.90353096
-0.41422218 3.3801796 -0.90353096
-0.40428084 3.3801796 -0.90353096
-0.34463283 3.3801796 -0.90353096
-0.32806396 3.3801796 -0.90353096
-0.31480885 3.3801796 -0.90353096
-0.2949262 3.3801796 -0.90353096
-0.28167108 3.3801796 -0.90353096
-0.27504352 3.3801796 -0.90353096
-0.26841596 3.3801796 -0.90353096
-0.25516087 3.3801796 -0.90353096
-0.24521953 3.3801796 -0.90353096
-0.23527819 3.3801796 -0.90353096
-0.21539553 3.3801796 -0.90353096
-0.2054542 3.3801796 -0.90353096
-0.19551286 3.3801796 -0.90353096
-0.18557152 3.3801796 -0.90353096
-0.1756302 3.3801796 -0.90353096
-0.16568887 3.3801796 -0.90353096
-0.15574753 3.3801796 -0.90353096
-0.14580619 3.3801796 -0.90353096
-0.13586487 3.3801796 -0.90353096
-0.12592353 3.3801796 -0.90353096
-0.1159822 3.3801796 -0.90353096
-0.10935465 3.3801796 -0.90353096
-0.096099541 3.3801796 -0.90353096
-0.076216877 3.3801796 -0.90353096
-0.57233113 3.4188306 -0.90008146
-0.56563717 3.4188306 -0.90008146
-0.55559629 3.4176311 -0.90320617
-0.54555541 3.4176311 -0.90320611
-0.53551447 3.4176311 -0.90320617
-0.33804354 3.4188306 -0.90008146
-0.32465568 3.4176311 -0.90320611
-0.31126779 3.4176311 -0.90320611
-0.30457386 3.4164319 -0.90633082
-0.2934173 3.4172313 -0.9042477
-0.2744512 3.4164319 -0.90633082
-0.26441029 3.4176311 -0.90320611
-0.25102243 3.4176311 -0.90320611
-0.2443285 3.4164319 -0.90633082
-0.23317194 3.418031 -0.90216464
-0.2242467 3.4188306 -0.90008146
-0.20416491 3.4176311 -0.90320611
-0.19747098 3.4176311 -0.90320611
-0.5621348 3.3097873 -0.89809406
-0.55563617 3.3097873 -0.89809406
-0.51014549 3.3097873 -0.89809406
-0.50364679 3.3097873 -0.89809406
-0.40616676 3.3097873 -0.89809406
-0.38342142 3.3097873 -0.89809406
-0.37367344 3.3097873 -0.89809406
-0.56109202 3.3469901 -0.8946594
-0.50531095 3.3469901 -0.8946594
-0.49546722 3.3469901 -0.8946594
-0.48562348 3.3469901 -0.8946594
-0.47577977 3.3469901 -0.8946594
-0.46593606 3.3469901 -0.8946594
-0.45609233 3.3469901 -0.8946594
-0.39046752 3.3469901 -0.8946594
-0.38390505 3.3469901 -0.8946594
-0.37406135 3.3469901 -0.8946594
-0.36421761 3.3469901 -0.8946594
-0.3543739 3.3469901 -0.8946594
-0.56334215 3.3825548 -0.89734364
-0.52026302 3.3837423 -0.89424992
-0.51363552 3.3837423 -0.89424992
-0.50258958 3.3841381 -0.8932187
-0.46061504 3.3837423 -0.89424992
-0.45398751 3.3837423 -0.89424992
-0.44404617 3.3837423 -0.89424992
-0.43410483 3.3837423 -0.89424992
-0.42416349 3.3837423 -0.89424992
-0.41422218 3.3837423 -0.89424992
-0.40428084 3.3837423 -0.89424992
-0.3943395 3.3849297 -0.89115626
-0.38329354 3.3841381 -0.8932187
-0.34463283 3.3837423 -0.89424992
-0.33469152 3.3825548 -0.89734364
-0.32806396 3.3837423 -0.89424992
-0.31480885 3.3837423 -0.89424992
-0.30155373 3.3849297 -0.89115626
-0.2949262 3.3849297 -0.89115626
-0.28167108 3.3837423 -0.89424992
-0.27504352 3.3849297 -0.89115626
-0.26841596 3.3849297 -0.89115626
-0.25516087 3.3837423 -0.89424992
-0.23527819 3.3825548 -0.89734364
-0.22202308 3.3825548 -0.89734364
-0.21539553 3.3837423 -0.89424992
-0.20876797 3.3837423 -0.89424992
-0.18557152 3.3837423 -0.89424992
-0.1756302 3.3837423 -0.89424992
-0.16568887 3.3837423 -0.89424992
-0.15574753 3.3837423 -0.89424992
-0.14580619 3.3837423 -0.89424992
-0.13586487 3.3837423 -0.89424992
-0.12592353 3.3837423 -0.89424992
-0.1159822 3.3837423 -0.89424992
-0.10935465 3.3837423 -0.89424992
-0.54555541 3.4212296 -0.89383215
-0.53551447 3.4212296 -0.89383215
-0.291186 3.4212296 -0.89383215
-0.23094063 3.4212296 -0.89383215
-0.19077705 3.4212296 -0.89383215
-0.5713594 3.4582634 -0.89656186
-0.54431283 3.4606867 -0.89024937
-0.55559629 3.4248281 -0.88445812
-0.54555541 3.4248281 -0.88445812
-0.53439885 3.4244282 -0.88549966
-0.42506465 3.4236286 -0.88758278
-0.41837069 3.4236286 -0.88758278
-0.54431283 3.4631097 -0.88393682
-0.53755116 3.4631097 -0.88393682
