# .PCD v0.7 - Point Cloud Data file format
VERSION 0.7
FIELDS x y z
SIZE 4 4 4
TYPE F F F
COUNT 1 1 1
WIDTH 359
HEIGHT 1
VIEWPOINT 0 0 0 1 0 0 0
POINTS 359
DATA ascii
0.74388564 4.1618462 -0.055756927
0.73202091 4.1213193 -0.041406631
0.74673492 4.1213193 -0.041406631
0.72528851 4.1645122 -0.048812151
0.73272741 4.1658449 -0.045339763
0.74512547 4.165401 -0.046497226
0.75504398 4.1645122 -0.048812151
0.73202091 4.1239557 -0.034538388
0.82302153 2.7013671 -0.013608575
0.83505398 2.7013671 -0.013608575
0.31594753 4.2248511 -0.014246821
0.32723138 4.2248511 -0.014246821
0.33475393 4.2248511 -0.014246821
0.34603778 4.2248511 -0.014246821
0.35732162 4.2248511 -0.014246821
0.36484417 4.2248511 -0.014246821
0.37612802 4.2248511 -0.014246821
0.80757332 2.6863122 -0.0023582578
0.81713045 2.685456 -0.0045888424
0.79655004 2.7048168 -0.004621943
0.80376959 2.7048168 -0.004621943
0.8133955 2.7030919 -0.0091152191
0.82302153 2.7048166 -0.004621923
0.83505404 2.7048168 -0.004621943
0.25576705 4.2275472 -0.0072239637
0.26705089 4.2275472 -0.0072239637
0.27457345 4.2275472 -0.0072239637
0.28585729 4.2275472 -0.0072239637
0.29714113 4.2275472 -0.0072239637
0.30466369 4.2275472 -0.0072239637
0.31594753 4.2275472 -0.0072239637
0.32723138 4.2275472 -0.0072239637
0.33475393 4.2275472 -0.0072239637
0.34603778 4.2275472 -0.0072239637
0.35732162 4.2275472 -0.0072239637
0.36484417 4.2275472 -0.0072239637
0.37612802 4.2275472 -0.0072239637
0.19182529 4.2302432 -0.00020098686
0.20687041 4.2302432 -0.00020098686
0.21439297 4.2302432 -0.00020098686
0.2256768 4.2302432 -0.00020098686
0.23696065 4.2302432 -0.00020098686
0.24448322 4.2302432 -0.00020098686
0.25576705 4.2302432 -0.00020098686
0.26705089 4.2302432 -0.00020098686
0.27457345 4.2302432 -0.00020098686
0.28585729 4.2302432 -0.00020098686
0.29714113 4.2302432 -0.00020098686
0.30466369 4.2302432 -0.00020098686
0.31594753 4.2302432 -0.00020098686
0.32723138 4.2302432 -0.00020098686
0.33475393 4.2302432 -0.00020098686
0.34603778 4.2302432 -0.00020098686
0.35732162 4.2302432 -0.00020098686
0.36484417 4.2302432 -0.00020098686
0.20161642 4.2770195 -0.003754735
0.80757332 2.6888809 0.0043334961
0.8195197 2.6888809 0.0043334961
0.80457181 2.7088413 0.0058624544
0.20687041 4.2329388 0.0068218708
0.21439297 4.2329388 0.0068218708
0.2256768 4.2329388 0.0068218708
0.23696065 4.2329388 0.0068218708
0.24448322 4.2329388 0.0068218708
0.25576705 4.2329388 0.0068218708
0.26705089 4.2329388 0.0068218708
0.28585729 4.2329388 0.0068218708
0.29714113 4.2329388 0.0068218708
0.095102087 4.2811093 0.0068994761
0.10271025 4.2811093 0.0068994761
0.1141225 4.2811093 0.0068994761
0.12553474 4.2811093 0.0068994761
0.13314292 4.2811093 0.0068994761
0.14455517 4.2811093 0.0068994761
0.15596741 4.2811093 0.0068994761
0.16357559 4.2811093 0.0068994761
0.17498782 4.2811093 0.0068994761
0.18640009 4.2811093 0.0068994761
0.19400825 4.2811093 0.0068994761
0.20161642 4.2811093 0.0068994761
0.27769807 4.2811093 0.0068994761
0.21439297 4.2356348 0.013844728
0.2256768 4.2356348 0.013844728
0.026628584 4.2838359 0.014002323
0.034236751 4.2838359 0.014002323
0.045649 4.2838359 0.014002323
0.057061251 4.2838359 0.014002323
0.064669415 4.2838359 0.014002323
0.076081663 4.2838359 0.014002323
0.087493919 4.2838359 0.014002323
0.095102087 4.2838359 0.014002323
0.10271025 4.2838359 0.014002323
0.1141225 4.2838359 0.014002323
0.12553474 4.2838359 0.014002323
0.13314292 4.2838359 0.014002323
0.14455517 4.2838359 0.014002323
0.15596741 4.2838359 0.014002323
0.16357559 4.2838359 0.014002323
0.17498782 4.2838359 0.014002323
0.18640009 4.2838359 0.014002323
0.19400825 4.2838359 0.014002323
0.20542049 4.2838359 0.014002323
0.003847871 4.3331461 0.014163494
0.14668992 4.2383304 0.020867705
0.015216332 4.2879257 0.024656594
0.026628584 4.2879257 0.024656594
0.034236751 4.2879257 0.024656594
0.045649 4.2879257 0.024656594
0.057061251 4.2879257 0.024656594
0.064669415 4.2879257 0.024656594
0.076081663 4.2879257 0.024656594
0.087493919 4.2879257 0.024656594
0.095102087 4.2879257 0.024656594
0.10271025 4.2879257 0.024656594
0.13314292 4.2865624 0.02110517
-0.096196778 4.3372831 0.024940431
-0.084653169 4.3372827 0.024940431
-0.073109552 4.3372831 0.024940431
-0.06541381 4.3386617 0.028532743
-0.053870194 4.3372831 0.024940431
-0.042326581 4.3372831 0.024940431
-0.034630839 4.3372831 0.024940431
-0.026935097 4.3372831 0.024940431
-0.015391484 4.3372827 0.024940431
-0.003847871 4.3372831 0.024940431
0.003847871 4.3372831 0.024940431
-0.16545846 4.3414197 0.035717249
-0.15391484 4.3414197 0.035717249
-0.14237122 4.3414197 0.035717249
-0.13467549 4.3414197 0.035717249
-0.12697974 4.3414197 0.035717249
-0.11543613 4.3414197 0.035717249
-0.10389252 4.3414197 0.035717249
-0.096196778 4.3414197 0.035717249
-0.084653169 4.3414197 0.035717249
-0.073109552 4.3414197 0.035717249
-0.06541381 4.3414197 0.035717249
-0.053870194 4.3414197 0.035717249
-0.042326581 4.3414197 0.035717249
-0.034630839 4.3414197 0.035717249
-0.026935097 4.3414197 0.035717249
-0.015391484 4.3414197 0.035717249
-0.21409726 4.391973 0.03613317
-0.2063119 4.391973 0.03613317
-0.19463387 4.391973 0.03613317
-0.18295583 4.391973 0.03613317
-0.17517048 4.391973 0.03613317
-0.24812794 4.443717 0.036558867
-0.22449671 4.443717 0.036558867
-0.18084994 4.3441777 0.042901874
-0.17315421 4.3441777 0.042901874
-0.15391484 4.3441777 0.042901874
-0.14237122 4.3441777 0.042901874
-0.13467549 4.3441777 0.042901874
-0.12697974 4.3441777 0.042901874
-0.11543613 4.3441777 0.042901874
-0.10389252 4.3441777 0.042901874
-0.096196778 4.3441777 0.042901874
-0.084653169 4.3441777 0.042901874
-0.29584348 4.394763 0.04340148
-0.28416544 4.394763 0.04340148
-0.27638009 4.394763 0.04340148
-0.26470208 4.394763 0.04340148
-0.25302404 4.394763 0.04340148
-0.23745333 4.394763 0.04340148
-0.22966796 4.394763 0.04340148
-0.2063119 4.394763 0.04340148
-0.19463387 4.394763 0.04340148
-0.16738513 4.394763 0.04340148
-0.24812794 4.4465399 0.043912768
-0.22449671 4.4465399 0.043912768
-0.21661963 4.4465399 0.043912768
-0.35785201 4.3496933 0.057271004
-0.32706904 4.3496933 0.057271004
-0.31937331 4.3483143 0.053678751
-0.23472014 4.3483143 0.053678751
-0.22702439 4.3483143 0.053678751
-0.36591166 4.397553 0.05066967
-0.35423365 4.397553 0.05066967
-0.3464483 4.397553 0.05066967
-0.33477026 4.397553 0.05066967
-0.31530687 4.397553 0.05066967
-0.30752152 4.397553 0.05066967
-0.29584348 4.397553 0.05066967
-0.28416544 4.397553 0.05066967
-0.27638009 4.397553 0.05066967
-0.26470208 4.397553 0.05066967
-0.25302404 4.397553 0.05066967
-0.24523868 4.397553 0.05066967
-0.22188261 4.397553 0.05066967
-0.21409726 4.397553 0.05066967
-0.2063119 4.397553 0.05066967
-0.19852655 4.397553 0.05066967
-0.42430183 4.4003429 0.05793798
-0.41651648 4.4003429 0.05793798
-0.40873113 4.4003429 0.05793798
-0.38537505 4.4003429 0.05793798
-0.3775897 4.4003429 0.05793798
-0.36980435 4.4003429 0.05793798
-0.35423365 4.4003429 0.05793798
-0.3464483 4.4003429 0.05793798
-0.33866292 4.4003429 0.05793798
-0.31530687 4.4003429 0.05793798
-0.30752152 4.4003429 0.05793798
-0.29584348 4.4003429 0.05793798
-0.28416544 4.4003429 0.05793798
-0.27638009 4.4003429 0.05793798
-0.26470208 4.4003429 0.05793798
-0.25302404 4.4003429 0.05793798
-0.38991532 4.4493628 0.05126667
-0.40566948 4.4521856 0.058620572
-0.3977924 4.4521856 0.058620572
-0.43528882 4.1626248 0.066197358
-0.42302716 4.1621852 0.065052629
-0.36554775 4.3524513 0.064455748
-0.35400414 4.3524513 0.064455748
-0.34246051 4.3524513 0.064455748
-0.33476478 4.3524513 0.064455748
-0.32706904 4.3524513 0.064455748
-0.31552541 4.3524513 0.064455748
-0.30398181 4.3524513 0.064455748
-0.29628608 4.3524513 0.064455748
-0.41651648 4.4031334 0.065206289
-0.40873113 4.4031334 0.065206289
-0.38537505 4.4031334 0.065206289
-0.3775897 4.4031334 0.065206289
-0.40566948 4.4550085 0.065974474
-0.3977924 4.4550085 0.065974474
-0.48072559 4.0342636 0.076271176
-0.47360373 4.0355401 0.079595566
-0.46648186 4.0355401 0.079595566
-0.47510445 4.076417 0.073732257
-0.46430662 4.076417 0.073732257
-0.46208388 4.1207905 0.074535012
-0.45480698 4.1207905 0.074535012
-0.44753006 4.1207905 0.074535012
-0.44509816 4.1661401 0.075355172
-0.43406266 4.1661401 0.075355172
-0.50539184 3.7978554 0.087311625
-0.50374293 3.8350644 0.085038662
-0.49698126 3.8362761 0.088194966
-0.50206017 3.873033 0.082719207
-0.49522939 3.8754811 0.089096189
-0.50034255 3.9130213 0.083573222
-0.49858895 3.9538426 0.084445119
-0.49679828 3.9955239 0.085335255
-0.48622811 3.9955239 0.085335255
-0.48072559 4.0380921 0.086244345
-0.47360373 4.0380921 0.086244345
-0.46430662 4.0789967 0.0804528
-0.47150517 4.0815763 0.087173223
-0.46430662 4.0815763 0.087173223
-0.46208388 4.1247025 0.08472532
-0.45480698 4.1247025 0.08472532
-0.45245516 4.1687765 0.082223535
-0.44509816 4.1687765 0.082223535
-0.43774116 4.1687765 0.082223535
-0.43517312 4.2151632 0.083138466
-0.52314281 3.6894004 0.090831757
-0.51014549 3.6894004 0.090831757
-0.50364679 3.6894004 0.090831757
-0.5263921 3.6917293 0.096898794
-0.51339483 3.6917293 0.096898794
-0.50364679 3.6917293 0.096898794
-0.54468578 3.7268028 0.094786942
-0.53484207 3.7256269 0.09172368
-0.52171713 3.7256269 0.09172368
-0.50479877 3.7641544 0.096758127
-0.50539184 3.8002543 0.093560934
-0.49869788 3.8026533 0.099810243
-0.50374293 3.8386993 0.094507456
-0.49698126 3.8386993 0.094507456
-0.49522939 3.877929 0.095473289
-0.49510232 3.9575915 0.094210207
-0.48622811 3.9980493 0.091914058
-0.48072559 4.0406446 0.092893243
-0.57067496 3.4010427 0.10583663
-0.56469935 3.4010427 0.10583663
-0.55573583 3.4010427 0.10583663
-0.55170637 3.4317331 0.10679173
-0.50523263 3.6584835 0.10197413
-0.50523263 3.66079 0.10798275
-0.49879655 3.66079 0.10798275
-0.52314281 3.6940582 0.10296583
-0.51664412 3.6940582 0.10296583
-0.50364679 3.6940582 0.10296583
-0.54140455 3.7303307 0.10397685
-0.53484207 3.7303307 0.10397685
-0.50369418 3.7673213 0.10500789
-0.60061175 3.1296716 0.11763
-0.60506326 3.1819265 0.1195941
-0.59948665 3.1819265 0.1195941
-0.59265149 3.232904 0.11368287
-0.58698016 3.2339201 0.11633015
-0.58628595 3.2616084 0.11732602
-0.59134883 3.2877066 0.11295331
-0.58557957 3.2887404 0.1156463
-0.58486074 3.3173871 0.11665356
-0.57904124 3.3173871 0.11665356
-0.57532322 3.345484 0.11493826
-0.57351333 3.3737249 0.11227083
-0.57067496 3.4042549 0.11420476
-0.56469935 3.4042549 0.11420476
-0.55573583 3.4042549 0.11420476
-0.54677236 3.4031842 0.11141539
-0.55170637 3.4360547 0.11804986
-0.54140455 3.7326825 0.11010337
-0.62609768 3.0112696 0.12610739
-0.62399524 3.0348964 0.12628371
-0.61602938 3.0348961 0.12628371
-0.61293691 3.0582612 0.12479722
-0.61293691 3.0601797 0.12979472
-0.61249274 3.0820031 0.12328637
-0.61204106 3.1071062 0.12429059
-0.60478729 3.106781 0.12344408
-0.60244012 3.1329477 0.1261646
-0.60005391 3.1575649 0.12376702
-0.59948665 3.1839249 0.12480032
-0.59609795 3.2087126 0.12060082
-0.59890974 3.2107277 0.1258508
-0.59454191 3.2373073 0.1251545
-0.58698016 3.2369685 0.12427205
-0.58628595 3.2646832 0.12533599
-0.58557957 3.2928753 0.12641847
-0.58486074 3.3205152 0.12480307
-0.57904124 3.3205152 0.12480307
-0.57532322 3.34864 0.12315929
-0.56651723 3.34864 0.12315929
-0.56561643 3.3783238 0.12425107
-0.65365505 2.9477963 0.13920844
-0.64078778 2.9477963 0.13920844
-0.63564092 2.9477963 0.13920844
-0.66391873 2.9679036 0.13302612
-0.65354502 2.9679036 0.13302612
-0.64317131 2.9679036 0.13302612
-0.63193315 2.9682133 0.13383318
-0.64036447 2.9901977 0.13162726
-0.62990952 2.9911344 0.13406742
-0.62697577 3.0147312 0.1351251
-0.61907274 3.0156753 0.13758451
-0.62399524 3.037751 0.13372046
-0.61602938 3.0387027 0.13619947
-0.60806346 3.0387025 0.13619947
-0.60758376 3.062098 0.13479245
-0.61249274 3.084904 0.1308434
-0.60709631 3.085871 0.13336235
-0.6066007 3.1110053 0.13444859
-0.60335428 3.1365514 0.13555259
-0.60506326 3.1869228 0.13260967
-0.59948665 3.1869228 0.13260967
-0.59890974 3.2137508 0.13372594
-0.65365505 2.9496408 0.14401364
-0.64336121 2.9496408 0.14401364
-0.66521549 2.9730151 0.14634264
-0.65354502 2.9725504 0.14513206
-0.64057785 2.9725504 0.14513201
-0.63331628 2.9729221 0.14610051
-0.63513702 2.9939444 0.14138776
-0.62990952 2.9948812 0.14382792
