# .PCD v0.7 - Point Cloud Data file format
VERSION 0.7
FIELDS x y z
SIZE 4 4 4
TYPE F F F
COUNT 1 1 1
WIDTH 1239
HEIGHT 1
VIEWPOINT 0 0 0 1 0 0 0
POINTS 1239
DATA ascii
0.31583649 2.4808223 -1.3794823
0.32654282 2.4808223 -1.3794823
0.33814135 2.4814618 -1.3778166
0.34527889 2.4817815 -1.3769835
0.35241643 2.4821012 -1.3761506
0.36401495 2.4817817 -1.3769835
0.42379192 2.4814618 -1.3778166
0.43449822 2.4821014 -1.3761506
0.44698894 2.4827409 -1.3744848
0.45591089 2.4821012 -1.3761506
0.465725 2.4817815 -1.3769835
0.47643134 2.4817817 -1.3769835
0.0080946172 2.5086017 -1.3704759
0.017088637 2.507957 -1.3721552
0.043171294 2.5076346 -1.3729949
0.053964116 2.5086017 -1.3704759
0.062058732 2.5086017 -1.3704759
0.078247964 2.5076346 -1.3729949
0.086342588 2.5076346 -1.3729949
0.09713541 2.5076346 -1.3729949
0.10523003 2.5076346 -1.3729949
0.11332464 2.5076346 -1.3729949
0.12411746 2.5076346 -1.3729949
0.13491029 2.5076346 -1.3729949
0.14570311 2.5076346 -1.3729949
0.15649593 2.5076346 -1.3729949
0.16638935 2.507957 -1.3721552
0.17538337 2.5086017 -1.3704759
0.183478 2.5076346 -1.3729949
0.19427082 2.5076346 -1.3729949
0.20506364 2.5076346 -1.3729949
0.21585646 2.5076346 -1.3729949
0.22664928 2.5076346 -1.3729949
0.23474391 2.5076346 -1.3729949
0.24283853 2.5076346 -1.3729949
0.25363135 2.5076346 -1.3729949
0.26442415 2.5076346 -1.3729949
0.275217 2.5076346 -1.3729949
0.28600982 2.5076346 -1.3729949
0.29680264 2.5076346 -1.3729949
0.30489725 2.5076346 -1.3729949
0.31299186 2.5076346 -1.3729949
0.32378471 2.5076346 -1.3729949
0.3345775 2.5076346 -1.3729949
0.34447095 2.507957 -1.3721552
0.35616314 2.5076346 -1.3729949
0.366956 2.5076346 -1.3729949
0.3750506 2.5076346 -1.3729949
0.38314521 2.5076346 -1.3729949
0.39393806 2.5076346 -1.3729949
0.40473089 2.5076346 -1.3729949
0.41552368 2.5076346 -1.3729949
0.4263165 2.5076346 -1.3729949
0.1387293 2.5329335 -1.3714803
0.16049077 2.5329335 -1.3714803
0.30738062 2.5319586 -1.3740199
0.31554118 2.5319586 -1.3740199
0.32642192 2.5319586 -1.3740199
0.33458245 2.5319586 -1.3740199
0.34183624 2.5322835 -1.3731734
0.37810537 2.5329335 -1.3714803
0.38898611 2.5329335 -1.3714803
0.39714664 2.5329335 -1.3714803
0.4053072 2.5329335 -1.3714803
0.41437447 2.5316336 -1.3748664
0.42344174 2.5316336 -1.3748664
0.43250903 2.5319586 -1.3740199
0.30990469 2.5576639 -1.3725009
0.35378501 2.5576639 -1.3725009
0.38395274 2.5576639 -1.3725009
0.44428813 2.5576639 -1.3725009
0.42750311 2.4610972 -1.3685141
0.4381243 2.4620488 -1.3660351
0.44609019 2.4610972 -1.3685141
0.16862458 2.4865775 -1.3644896
0.17397773 2.4865775 -1.3644896
0.34527889 2.4865775 -1.3644896
0.43360603 2.4856184 -1.3669883
0.44431236 2.4856184 -1.3669883
0.4550187 2.4856184 -1.3669883
0.465725 2.4856184 -1.3669883
0.47643134 2.4856184 -1.3669882
0.0080946172 2.5115023 -1.3629189
0.016189234 2.5115023 -1.362919
0.026982058 2.5115023 -1.362919
0.035076674 2.5115023 -1.3629189
0.043171294 2.5105355 -1.3654379
0.056662321 2.5105355 -1.3654379
0.062058732 2.5105355 -1.3654379
0.087241985 2.5111799 -1.3637586
0.09713541 2.5115023 -1.3629189
0.10523003 2.5115023 -1.3629189
0.11332464 2.5115023 -1.3629189
0.12411746 2.5115023 -1.3629189
0.1340109 2.5111799 -1.3637586
0.15919414 2.5105355 -1.3654379
0.16728875 2.5115023 -1.3629189
0.17538337 2.5115023 -1.3629189
0.183478 2.5115023 -1.362919
0.19427082 2.5115023 -1.362919
0.20506363 2.5115023 -1.362919
0.21585646 2.5115023 -1.362919
0.22664928 2.5115023 -1.362919
0.23474391 2.5115023 -1.3629189
0.24283853 2.5115023 -1.362919
0.25363135 2.5115023 -1.362919
0.26442415 2.5115023 -1.362919
0.275217 2.5115023 -1.3629189
0.28600982 2.5115023 -1.362919
0.29680264 2.5115023 -1.3629189
0.34626976 2.5111799 -1.3637586
0.35616314 2.5115023 -1.362919
0.366956 2.5115023 -1.362919
0.3750506 2.5105355 -1.3654379
0.38224581 2.5111799 -1.3637586
0.39393806 2.5105355 -1.3654379
0.40203267 2.5105355 -1.3654379
0.43710935 2.5115023 -1.362919
0.44520396 2.5124693 -1.3604
0.46139318 2.5124693 -1.3604
0.47488421 2.5124693 -1.3604
-0.11152748 2.5358579 -1.3638618
-0.10608712 2.5358579 -1.3638618
-0.095206387 2.5358579 -1.3638618
-0.016321095 2.5358579 -1.3638618
-0.0054403651 2.5358579 -1.3638618
0.0027201825 2.5358579 -1.3638618
0.035362374 2.5358579 -1.3638618
0.043522924 2.5358579 -1.3638618
0.054403648 2.534883 -1.3664013
0.065284379 2.534883 -1.3664013
0.077071838 2.535533 -1.3647083
0.087045848 2.5358579 -1.3638618
0.095206387 2.5368328 -1.3613223
0.10336694 2.5368328 -1.3613223
0.11334094 2.5361829 -1.3630153
0.12512839 2.5368328 -1.3613223
0.13510241 2.535533 -1.3647083
0.14688987 2.534883 -1.3664013
0.1550504 2.5358579 -1.3638618
0.16230422 2.5361829 -1.3630153
0.17409168 2.5368328 -1.3613223
0.18497241 2.5368328 -1.3613223
0.19585314 2.5358579 -1.3638618
0.2076406 2.535533 -1.3647083
0.21489441 2.5368328 -1.3613223
0.22305498 2.5368328 -1.3613223
0.23665588 2.5368328 -1.3613223
0.26385769 2.5368328 -1.3613223
0.28561917 2.5368328 -1.3613223
0.29377973 2.5368328 -1.3613223
0.3037537 2.535533 -1.3647083
0.32642192 2.534883 -1.3664013
0.35453045 2.535533 -1.3647083
0.36450446 2.5358579 -1.3638618
0.37447846 2.535533 -1.3647083
0.38626593 2.534883 -1.3664013
0.43794939 2.534883 -1.3664013
0.44701669 2.535533 -1.3647083
0.45699066 2.5368328 -1.3613223
0.46515122 2.5368328 -1.3613223
0.47331175 2.5368328 -1.3613223
0.043880314 2.5596297 -1.3673801
0.054850385 2.5596297 -1.3673801
0.06582047 2.5596297 -1.3673801
0.076790541 2.5596297 -1.3673801
0.085018098 2.5596297 -1.3673801
0.11792833 2.5596297 -1.3673801
0.13712597 2.5596297 -1.3673801
0.14535353 2.5596297 -1.3673801
0.15358108 2.5596297 -1.3673801
0.16455117 2.5596297 -1.3673801
0.17552124 2.5596297 -1.3673801
0.18649131 2.5596297 -1.3673801
0.19471888 2.5596297 -1.3673801
0.20294642 2.5596297 -1.3673801
0.21391651 2.5596297 -1.3673801
0.23859918 2.5596297 -1.3673801
0.30716217 2.5596297 -1.3673801
0.35652751 2.5596297 -1.3673801
0.36475506 2.5596297 -1.3673801
0.37298262 2.5596297 -1.3673801
0.38669524 2.5596297 -1.3673801
0.39218026 2.5596297 -1.3673801
0.44428813 2.5596297 -1.3673801
0.45525822 2.5596297 -1.3673801
0.46622831 2.5596297 -1.3673801
-0.26328188 2.5615952 -1.3622594
-0.2550543 2.5615952 -1.3622594
-0.24682674 2.5615952 -1.3622594
-0.23585667 2.5615952 -1.3622594
-0.20568895 2.5615952 -1.3622594
-0.17552124 2.5615952 -1.3622594
-0.15083857 2.5615952 -1.3622594
-0.14535353 2.5615952 -1.3622594
-0.13712597 2.5615952 -1.3622594
-0.12615588 2.5615952 -1.3622594
-0.11518581 2.5615952 -1.3622594
-0.10147322 2.5615952 -1.3622594
-0.093245655 2.5615952 -1.3622594
-0.043880314 2.5615952 -1.3622594
-0.016455116 2.5615952 -1.3622594
-0.0054850387 2.5615952 -1.3622594
0.032910235 2.5615952 -1.3622594
0.076790541 2.5615952 -1.3622594
0.085018098 2.5615952 -1.3622594
0.093245655 2.5615952 -1.3622594
0.10147322 2.5615952 -1.3622594
0.11518581 2.5615952 -1.3622594
0.12615588 2.5615952 -1.3622594
0.13438345 2.5615952 -1.3622594
0.17826375 2.5615952 -1.3622594
0.18649131 2.5615952 -1.3622594
0.19471888 2.5615952 -1.3622594
0.21391651 2.5615952 -1.3622594
0.2248866 2.5615952 -1.3622594
0.23585667 2.5615952 -1.3622594
0.24682674 2.5615952 -1.3622594
0.2550543 2.5615952 -1.3622594
0.26328188 2.5615952 -1.3622594
0.27425194 2.5615952 -1.3622594
0.28796452 2.5615952 -1.3622594
0.29619211 2.5615952 -1.3622594
0.30441967 2.5615952 -1.3622594
0.44154564 2.5615952 -1.3622594
0.45525822 2.5615952 -1.3622594
0.46622831 2.5615952 -1.3622594
-0.016591353 2.5867672 -1.3632116
-0.005530451 2.5867672 -1.3632116
0.0027652255 2.5867672 -1.3632116
0.034104448 2.5861065 -1.3649327
0.055304512 2.5857763 -1.3657932
0.066365406 2.5857763 -1.3657932
0.074661091 2.5857763 -1.3657932
0.082956769 2.5857763 -1.3657932
0.09401767 2.5867672 -1.3632116
0.10415682 2.5861065 -1.3649327
0.11613946 2.5857763 -1.3657932
0.12720038 2.5857763 -1.3657932
0.13549605 2.5857763 -1.3657932
0.14379172 2.5857763 -1.3657932
0.15485263 2.5857763 -1.3657932
0.16591352 2.5857763 -1.3657932
0.17697443 2.5857763 -1.3657932
0.1852701 2.5857763 -1.3657932
0.19356579 2.5857763 -1.3657932
0.20462668 2.5857763 -1.3657932
0.21568759 2.5857763 -1.3657932
0.2267485 2.5857763 -1.3657932
0.23504417 2.5857763 -1.3657932
0.2424181 2.5861065 -1.3649327
0.25532249 2.5861065 -1.3649327
0.26546162 2.5857763 -1.3657932
0.27652255 2.5867672 -1.3632116
0.28481823 2.5867672 -1.3632116
0.29311389 2.5867672 -1.3632116
0.30509654 2.5861065 -1.3649327
0.3152357 2.5857763 -1.3657932
0.32629663 2.5857763 -1.3657932
0.33459228 2.5857763 -1.3657932
0.34288794 2.5847852 -1.3683748
0.35394886 2.5847852 -1.3683748
0.36408806 2.5854459 -1.3666538
0.37607068 2.5847852 -1.3683748
0.38713157 2.5847852 -1.3683748
0.39542723 2.5847852 -1.3683748
0.40372294 2.5847852 -1.3683748
0.41478384 2.5847852 -1.3683748
0.42860994 2.5847852 -1.3683748
0.44520131 2.5857763 -1.3657932
0.45349699 2.5857763 -1.3657932
0.46455789 2.5857763 -1.3657932
0.12547395 2.612359 -1.3641795
0.13383889 2.612359 -1.3641795
0.14499211 2.612359 -1.3641795
0.17566353 2.612359 -1.3641795
0.18681677 2.612359 -1.3641795
0.1951817 2.612359 -1.3641795
0.20633495 2.612359 -1.3641795
0.21469988 2.612359 -1.3641795
0.22306481 2.612359 -1.3641795
0.23421805 2.612359 -1.3641795
0.24258298 2.612359 -1.3641795
0.25652453 2.612359 -1.3641795
0.26488945 2.612359 -1.3641795
0.27325439 2.612359 -1.3641795
0.28440762 2.612359 -1.3641795
0.29556087 2.612359 -1.3641795
0.30671412 2.612359 -1.3641795
0.31507903 2.612359 -1.3641795
0.32344395 2.6113598 -1.3667827
0.3345972 2.6113598 -1.3667827
0.34575045 2.6113598 -1.3667827
0.35690367 2.6113598 -1.3667827
0.36526862 2.6113598 -1.3667827
0.37363353 2.6113598 -1.3667827
0.38478678 2.6113598 -1.3667827
0.39594004 2.6113598 -1.3667827
0.40709329 2.6113598 -1.3667827
0.4154582 2.6113598 -1.3667827
0.42382312 2.6113598 -1.3667827
0.43497637 2.6113598 -1.3667827
0.44705907 2.6110268 -1.3676504
0.45449454 2.6113598 -1.3667827
0.46285945 2.612359 -1.3641795
0.3402257 2.638381 -1.3651634
0.35428461 2.638381 -1.3651634
0.36271998 2.638381 -1.3651634
0.3767789 2.638381 -1.3651634
0.38521424 2.638381 -1.3651634
0.39364958 2.638381 -1.3651634
0.40489671 2.638381 -1.3651634
0.41333205 2.638381 -1.3651634
0.4245792 2.638381 -1.3651634
0.43020275 2.638381 -1.3651634
0.4555088 2.638381 -1.3651634
0.21550962 2.6668766 -1.3608688
0.22685224 2.6668766 -1.3608688
0.23535919 2.6668766 -1.3608688
0.24386615 2.6668766 -1.3608688
0.25520876 2.6668766 -1.3608688
0.27505833 2.6668766 -1.3608688
0.30625051 2.6668766 -1.3608688
0.31475747 2.6668766 -1.3608688
0.32420966 2.666199 -1.3626337
0.3743062 2.6658602 -1.3635161
0.45654014 2.6658602 -1.3635161
0.0080946172 2.5153704 -1.3528429
0.016189234 2.5153704 -1.3528428
0.026982058 2.5153704 -1.3528428
0.09713541 2.5144033 -1.3553619
0.10523003 2.5144033 -1.3553619
0.11602285 2.5144033 -1.3553619
0.12411746 2.5144033 -1.3553619
0.16728875 2.5144033 -1.3553619
0.17538337 2.5144033 -1.3553619
0.183478 2.5144033 -1.3553619
0.19157261 2.5144033 -1.3553619
0.21585646 2.5144033 -1.3553619
-0.12240821 2.5387824 -1.3562433
-0.11424766 2.5387824 -1.3562433
-0.10608712 2.5387824 -1.3562433
-0.013600913 2.5387824 -1.3562433
-0.0054403651 2.5387824 -1.3562433
0.0027201825 2.5387824 -1.3562433
0.029922009 2.5387824 -1.3562433
0.035362374 2.5387824 -1.3562433
0.089766026 2.5387824 -1.3562433
0.095206387 2.5387824 -1.3562433
0.10336694 2.5387824 -1.3562433
0.11152748 2.5387824 -1.3562433
0.12512839 2.5387824 -1.3562433
0.22305498 2.5387824 -1.3562433
0.23121551 2.5387824 -1.3562433
0.24481642 2.5387824 -1.3562433
0.25569716 2.5387824 -1.3562433
0.2665779 2.5387824 -1.3562433
0.27473843 2.5387824 -1.3562433
0.28289896 2.5387824 -1.3562433
0.29377973 2.5387824 -1.3562433
-0.10608712 2.5407319 -1.3511642
0.0027201825 2.5407319 -1.3511642
0.016321095 2.5407319 -1.3511642
0.024481643 2.5407319 -1.3511642
0.10608712 2.5407319 -1.3511642
-0.26328188 2.5645437 -1.3545783
-0.2550543 2.5645437 -1.3545783
-0.24682674 2.5645437 -1.3545783
-0.23677082 2.5642161 -1.3554317
-0.14535353 2.563561 -1.3571386
-0.13712597 2.563561 -1.3571386
-0.12615588 2.563561 -1.3571386
-0.11518581 2.5645437 -1.3545783
-0.10695826 2.5645437 -1.3545783
-0.016455116 2.563561 -1.3571386
-0.0054850387 2.563561 -1.3571386
0.0054850387 2.5645437 -1.3545783
0.016455116 2.5645437 -1.3545783
0.024682675 2.5645437 -1.3545783
0.030167714 2.563561 -1.3571386
0.093245655 2.563561 -1.3571386
0.10695826 2.563561 -1.3571386
0.24682674 2.563561 -1.3571386
0.27425194 2.563561 -1.3571386
0.28522199 2.563561 -1.3571386
0.29619211 2.563561 -1.3571386
-0.41478384 2.5887492 -1.3580486
-0.40372294 2.5887492 -1.3580486
-0.39542723 2.5887492 -1.3580486
-0.38989678 2.5887492 -1.3580486
-0.36500978 2.5887492 -1.3580486
-0.3567141 2.5887492 -1.3580486
-0.34012273 2.5887492 -1.3580486
-0.33459228 2.5887492 -1.3580486
-0.26546162 2.5887492 -1.3580486
-0.25440073 2.5887492 -1.3580486
-0.24333984 2.5887492 -1.3580486
-0.23504417 2.5887492 -1.3580486
-0.15208741 2.5887492 -1.3580486
-0.14379172 2.5887492 -1.3580486
-0.13549605 2.5887492 -1.3580486
-0.12720038 2.5887492 -1.3580486
-0.11613946 2.5887492 -1.3580486
-0.10784379 2.5887492 -1.3580486
-0.0027652255 2.5887492 -1.3580486
0.005530451 2.5887492 -1.3580486
0.016591353 2.5887492 -1.3580486
0.024887029 2.5887492 -1.3580486
0.033182703 2.5887492 -1.3580486
0.044243604 2.5887492 -1.3580486
0.055304512 2.5887492 -1.3580486
0.066365406 2.5887492 -1.3580486
0.074661091 2.5887492 -1.3580486
0.082956761 2.5887492 -1.3580486
0.09401767 2.5887492 -1.3580486
0.10231334 2.5887492 -1.3580486
0.12720038 2.5887492 -1.3580486
0.13549605 2.5887492 -1.3580486
0.14379172 2.5887492 -1.3580486
0.15485263 2.5887492 -1.3580486
0.16591352 2.5887492 -1.3580486
0.17697443 2.5887492 -1.3580486
0.1852701 2.5887492 -1.3580486
0.19356579 2.5887492 -1.3580486
0.20462668 2.5887492 -1.3580486
0.21568759 2.5887492 -1.3580486
0.2267485 2.5887492 -1.3580486
0.23504417 2.5887492 -1.3580486
0.24333984 2.5887492 -1.3580486
0.25440073 2.5887492 -1.3580486
0.26546162 2.5887492 -1.3580486
0.27652255 2.5887492 -1.3580486
0.28481823 2.5887492 -1.3580486
0.29311389 2.5887492 -1.3580486
0.30417478 2.5887492 -1.3580486
0.31247047 2.5887492 -1.3580486
0.4562622 2.5887492 -1.3580486
0.46179265 2.5887492 -1.3580486
-0.60005391 2.5907311 -1.3528855
-0.59452349 2.5907311 -1.3528855
-0.58899301 2.5907311 -1.3528855
-0.41478384 2.5907311 -1.3528855
-0.40372294 2.5907311 -1.3528855
-0.39542723 2.5907311 -1.3528855
-0.26546162 2.5907311 -1.3528855
-0.25440073 2.5907311 -1.3528855
-0.12443515 2.5907311 -1.3528855
-0.11613946 2.5907311 -1.3528855
-0.10784379 2.5907311 -1.3528855
0.0082956767 2.5907311 -1.3528855
0.016591353 2.5907311 -1.3528855
0.024887029 2.5907311 -1.3528855
0.033182703 2.5907311 -1.3528855
0.041478381 2.5907311 -1.3528855
0.055304512 2.5907311 -1.3528855
0.066365406 2.5907311 -1.3528855
0.074661091 2.5907311 -1.3528855
0.082956761 2.5907311 -1.3528855
0.09401767 2.5907311 -1.3528855
0.15485263 2.5907311 -1.3528855
0.16591352 2.5907311 -1.3528855
0.17973965 2.5907311 -1.3528855
0.24610506 2.5907311 -1.3528855
-0.40709329 2.6163561 -1.3537672
-0.39501059 2.61569 -1.3555025
-0.35690367 2.6153569 -1.3563702
-0.3345972 2.6153569 -1.3563702
-0.32344395 2.6153569 -1.3563702
-0.26488945 2.6153569 -1.3563702
-0.25652453 2.6153569 -1.3563702
-0.2453713 2.6153569 -1.3563702
-0.15335706 2.6143577 -1.3589733
-0.14499211 2.6143577 -1.3589733
-0.13290946 2.6150239 -1.3572378
-0.12547395 2.6153569 -1.3563702
-0.11710903 2.6153569 -1.3563702
-0.10688522 2.6150239 -1.3572378
-0.094802544 2.6143577 -1.3589733
-0.083649307 2.6143577 -1.3589733
0.006506057 2.6150239 -1.3572378
0.016729861 2.6153569 -1.3563702
0.02509479 2.6163561 -1.3537672
0.034389157 2.61569 -1.3555025
0.044612959 2.6153569 -1.3563702
0.054836765 2.61569 -1.3555025
0.066919446 2.6163561 -1.3537672
0.075284369 2.6163561 -1.3537672
0.083649307 2.6163561 -1.3537672
0.095731974 2.61569 -1.3555025
0.10595578 2.6153569 -1.3563702
0.11710903 2.6153569 -1.3563702
0.12547395 2.6153569 -1.3563702
0.13383889 2.6153569 -1.3563702
0.14499211 2.6153569 -1.3563702
0.15614536 2.6153569 -1.3563702
0.16451029 2.6153569 -1.3563702
0.17287523 2.6153569 -1.3563702
0.18402846 2.6153569 -1.3563702
0.19518171 2.6153569 -1.3563702
0.20633495 2.6153569 -1.3563702
0.21469988 2.6153569 -1.3563702
0.22306481 2.6153569 -1.3563702
0.23421805 2.6153569 -1.3563702
0.24537128 2.6153569 -1.3563702
0.25652453 2.6153569 -1.3563702
0.26488945 2.6153569 -1.3563702
0.27325439 2.6153569 -1.3563702
0.28347817 2.6150239 -1.3572378
0.29556087 2.6153569 -1.3563702
0.30671409 2.6153569 -1.3563702
0.31507903 2.6153569 -1.3563702
0.32344395 2.6153569 -1.3563702
0.33366776 2.6150239 -1.3572378
0.34482101 2.6150239 -1.3572378
0.35690367 2.6143577 -1.3589733
0.36526862 2.6153569 -1.3563702
0.37084523 2.6143577 -1.3589733
0.38199848 2.6143577 -1.3589733
0.40430495 2.6143577 -1.3589733
0.42661145 2.6143577 -1.3589733
-0.21088371 2.6424117 -1.3546634
-0.15464805 2.6414042 -1.3572884
-0.1462127 2.6414042 -1.3572884
-0.13496557 2.6414042 -1.3572884
-0.12371844 2.6414042 -1.3572884
-0.11528309 2.6414042 -1.3572884
-0.10684774 2.6414042 -1.3572884
-0.095600612 2.6414042 -1.3572884
-0.085290752 2.6410682 -1.3581634
-0.034678653 2.6410682 -1.3581634
0.0065608262 2.6410682 -1.3581634
0.014058913 2.6424117 -1.3546634
0.084353484 2.6424117 -1.3546634
0.095600612 2.6424117 -1.3546634
0.10684775 2.6414042 -1.3572884
0.11528309 2.6414042 -1.3572884
0.12371844 2.6414039 -1.3572884
0.13402832 2.6417401 -1.3564134
0.1462127 2.6424117 -1.3546634
0.1630834 2.6424117 -1.3546634
0.17433053 2.6424117 -1.3546634
0.18557766 2.6424117 -1.3546634
0.19682479 2.6424117 -1.3546634
0.20526014 2.6424117 -1.3546634
0.2136955 2.6424117 -1.3546634
0.22587989 2.6417398 -1.3564134
0.2352525 2.6417398 -1.3564134
0.24462509 2.6414042 -1.3572884
0.25306046 2.6414042 -1.3572884
0.26337031 2.6417398 -1.3564134
0.27555472 2.6414039 -1.3572884
0.28680182 2.6403964 -1.3599133
0.29523718 2.6414042 -1.3572884
0.30460981 2.6417398 -1.3564134
0.31491965 2.6414042 -1.3572884
0.32616681 2.6403964 -1.3599133
0.33460215 2.6403964 -1.3599133
0.34303749 2.6403964 -1.3599133
0.35428461 2.6403964 -1.3599133
0.36553174 2.6403964 -1.3599133
0.3767789 2.6403964 -1.3599133
0.38521424 2.6403964 -1.3599133
0.39364958 2.6403964 -1.3599133
0.40489671 2.6403964 -1.3599133
-0.096412197 2.6689088 -1.3555743
-0.087905243 2.6689088 -1.3555743
0.0085069593 2.6689088 -1.3555743
0.073726974 2.6689088 -1.3555743
0.085069589 2.6689088 -1.3555743
0.096412197 2.6689088 -1.3555743
0.10491916 2.6689088 -1.3555743
0.11342612 2.6689088 -1.3555743
0.15312526 2.6689088 -1.3555743
0.16446787 2.6689088 -1.3555743
0.17297482 2.6689088 -1.3555743
0.1871531 2.6689088 -1.3555743
0.19566005 2.6689088 -1.3555743
0.20416701 2.6689088 -1.3555743
0.21550962 2.6689088 -1.3555743
0.22685224 2.6689088 -1.3555743
0.23535919 2.6689088 -1.3555743
0.24670181 2.6689088 -1.3555743
0.25520876 2.6689088 -1.3555743
0.26655138 2.6689088 -1.3555743
0.27505833 2.6689088 -1.3555743
0.28356528 2.6689088 -1.3555743
0.29490793 2.6689088 -1.3555743
0.30625051 2.6689088 -1.3555743
0.31475747 2.6689088 -1.3555743
0.32042879 2.6689088 -1.3555743
0.33460706 2.6689088 -1.3555743
0.45654014 2.6689088 -1.3555743
-0.41400534 2.6709414 -1.3502796
-0.39415577 2.6709414 -1.3502796
-0.38564879 2.6709414 -1.3502796
-0.3743062 2.6709414 -1.3502796
-0.36296356 2.6709414 -1.3502796
-0.35445663 2.6709414 -1.3502796
-0.34594965 2.6709414 -1.3502796
-0.33460706 2.6709414 -1.3502796
-0.29207227 2.6709414 -1.3502796
-0.28356528 2.6709414 -1.3502796
-0.27505833 2.6709414 -1.3502796
-0.26655138 2.6709414 -1.3502796
-0.25520876 2.6709414 -1.3502796
0.0085069593 2.6709414 -1.3502796
0.017013919 2.6709414 -1.3502796
0.048206098 2.6709414 -1.3502796
0.05671306 2.6709414 -1.3502796
0.065220021 2.6709414 -1.3502796
0.073726974 2.6709414 -1.3502796
0.09924785 2.6709414 -1.3502796
0.11342612 2.6709414 -1.3502796
0.12476873 2.6709414 -1.3502796
0.13611135 2.6709414 -1.3502796
0.19566005 2.6709414 -1.3502796
0.26655138 2.6709414 -1.3502796
0.27505833 2.6709414 -1.3502796
0.28640094 2.6709414 -1.3502796
0.29207227 2.6709414 -1.3502796
0.30341485 2.6709414 -1.3502796
0.0085797943 2.6968842 -1.3538307
0.014299657 2.6979091 -1.3511608
0.065778427 2.6979091 -1.3511608
0.075311534 2.6972258 -1.3529407
0.085797951 2.6968842 -1.3538307
0.094377741 2.6968842 -1.3538307
0.10295753 2.6968842 -1.3538307
0.11439726 2.6968842 -1.3538307
0.125837 2.6968844 -1.3538308
0.13441677 2.6968842 -1.3538307
0.14204328 2.6965427 -1.3547207
0.15538961 2.6965427 -1.3547207
0.16587603 2.6958594 -1.3565006
0.17445582 2.6958594 -1.3565006
0.18303561 2.6958594 -1.3565006
0.19447534 2.6958594 -1.3565006
0.20496176 2.6965427 -1.3547207
0.21449485 2.6958594 -1.3565006
0.22307464 2.6968842 -1.3538307
0.23451439 2.6968844 -1.3538308
0.24595411 2.6968842 -1.3538307
0.25453389 2.6968842 -1.3538307
0.26311368 2.6968842 -1.3538307
0.27455342 2.6968842 -1.3538307
0.28599316 2.6968842 -1.3538307
0.29457295 2.6968842 -1.3538307
0.30410603 2.6965427 -1.3547207
0.31459248 2.6958594 -1.3565006
0.32603216 2.6958594 -1.3565006
0.33461198 2.6958594 -1.3565006
0.34033185 2.6958594 -1.3565006
0.40897021 2.6958594 -1.3565006
0.41469005 2.6958594 -1.3565006
0.42326987 2.6958594 -1.3565006
0.43470958 2.6958594 -1.3565006
0.44614929 2.6958594 -1.3565006
0.11826976 2.725342 -1.3520565
0.12980828 2.725342 -1.3520565
0.14519297 2.724653 -1.3538518
0.1730777 2.7243083 -1.3547494
0.18461622 2.7243083 -1.3547494
0.19615474 2.7243083 -1.3547494
0.20480862 2.7243083 -1.3547494
0.2134625 2.7243083 -1.3547494
0.22500102 2.725342 -1.3520565
0.23653953 2.725342 -1.3520565
0.24519342 2.725342 -1.3520565
0.25096267 2.725342 -1.3520565
0.26250118 2.725342 -1.3520565
0.27692434 2.725342 -1.3520565
0.28557822 2.7243083 -1.3547494
0.2942321 2.7243083 -1.3547494
0.30577061 2.7243083 -1.3547494
0.31442451 2.7243083 -1.3547494
0.32307839 2.7243083 -1.3547494
0.3346169 2.7243083 -1.3547494
0.34615541 2.7243083 -1.3547494
0.35480928 2.7243083 -1.3547494
0.36346319 2.7243083 -1.3547494
0.3750017 2.7243083 -1.3547494
0.3865402 2.7243083 -1.3547494
0.39519408 2.7243083 -1.3547494
0.40384799 2.7243083 -1.3547494
0.4153865 2.7243083 -1.3547494
0.42596349 2.7239637 -1.3556471
0.43557888 2.7243083 -1.3547494
0.44327125 2.7239637 -1.3556471
0.4557713 2.7232745 -1.3574425
0.29679501 2.7532523 -1.3529676
0.31716329 2.7532523 -1.3529676
0.32880232 2.7532523 -1.3529676
0.35789987 2.7532523 -1.3529676
0.36565924 2.752557 -1.3547786
0.39572668 2.7532523 -1.3529676
0.40445596 2.7532523 -1.3529676
0.42579415 2.752557 -1.3547786
0.43646324 2.7522094 -1.3556842
0.44519252 2.7522097 -1.355684
0.45392179 2.7522094 -1.3556842
-0.60005391 2.5937042 -1.3451407
-0.59452349 2.5937042 -1.3451407
-0.58899301 2.5937042 -1.3451407
0.024887029 2.5927131 -1.3477223
0.03041748 2.5927131 -1.3477223
0.058069736 2.5927131 -1.3477223
0.066365406 2.5927131 -1.3477223
0.074661091 2.5927131 -1.3477223
0.082956761 2.5927131 -1.3477223
0.091252439 2.5927131 -1.3477223
-0.63294637 2.6183546 -1.3485608
-0.62458146 2.6183546 -1.3485608
-0.61342824 2.6183546 -1.3485608
-0.60506326 2.6183546 -1.3485608
-0.59669834 2.6183546 -1.3485608
-0.58554512 2.6183546 -1.3485608
-0.56602693 2.6183546 -1.3485608
-0.38478678 2.6183546 -1.3485608
-0.37642187 2.6183546 -1.3485608
-0.36526862 2.6183546 -1.3485608
-0.35969201 2.6183546 -1.3485608
-0.25373623 2.6183546 -1.3485608
0.016729861 2.6183546 -1.3485608
0.02509479 2.6183546 -1.3485608
0.033459723 2.6183546 -1.3485608
0.044612959 2.6183546 -1.3485608
0.055766203 2.6183546 -1.3485608
0.066919446 2.6183546 -1.3485608
0.075284369 2.6183546 -1.3485608
0.083649307 2.6183546 -1.3485608
0.094802544 2.6183546 -1.3485608
0.1366272 2.6183546 -1.3485608
0.14499211 2.6183546 -1.3485608
0.15614536 2.6183546 -1.3485608
0.16451029 2.6183546 -1.3485608
0.17287523 2.6183546 -1.3485608
0.18402846 2.6183546 -1.3485608
0.1951817 2.6183546 -1.3485608
0.20633495 2.6183546 -1.3485608
0.21469988 2.6183546 -1.3485608
0.22027649 2.6183546 -1.3485608
0.23700635 2.6183546 -1.3485608
0.26488945 2.6183546 -1.3485608
0.29834917 2.6183546 -1.3485608
-0.63294637 2.620353 -1.3433547
-0.62458146 2.620353 -1.3433547
-0.61342824 2.620353 -1.3433547
-0.60506326 2.620353 -1.3433547
-0.59948665 2.620353 -1.3433547
0.019518171 2.620353 -1.3433547
0.02509479 2.620353 -1.3433547
0.033459723 2.620353 -1.3433547
0.044612959 2.620353 -1.3433547
0.055766203 2.620353 -1.3433547
0.066919446 2.620353 -1.3433547
0.075284369 2.620353 -1.3433547
-0.65514535 2.6454344 -1.3467882
-0.64577276 2.6450987 -1.3476633
-0.63640016 2.6457703 -1.3459133
-0.62421578 2.6464422 -1.3441632
-0.61296862 2.6454346 -1.3467882
-0.60453326 2.6464422 -1.3441632
-0.59609795 2.6454344 -1.3467882
-0.58485079 2.6454346 -1.3467882
-0.57360369 2.6454344 -1.3467883
-0.38521424 2.6454344 -1.3467882
-0.37677887 2.6454344 -1.3467882
-0.36553174 2.6454344 -1.3467883
-0.35428461 2.6454346 -1.3467882
-0.34303749 2.6454344 -1.3467883
-0.33460215 2.6444268 -1.3494133
-0.32897857 2.6444268 -1.3494133
-0.28680182 2.6444268 -1.3494133
-0.27649197 2.6450987 -1.3476633
-0.26524484 2.6450984 -1.3476633
-0.25306046 2.6444268 -1.3494133
-0.11528309 2.6444268 -1.3494133
-0.095600612 2.6444268 -1.3494133
0.016870696 2.6454344 -1.3467883
0.025306044 2.6464422 -1.3441632
0.033741392 2.6464422 -1.3441632
0.047800306 2.6464422 -1.3441632
0.056235656 2.6464422 -1.3441632
0.064671002 2.6454344 -1.3467882
0.073106349 2.6444268 -1.3494133
0.084353484 2.6444268 -1.3494133
0.095600612 2.6444268 -1.3494133
0.10684774 2.6444268 -1.3494133
0.11528309 2.6444268 -1.3494133
0.12371844 2.6454344 -1.3467882
0.13496557 2.6454346 -1.3467882
0.14527543 2.6450984 -1.3476633
0.15464805 2.6444268 -1.3494133
0.1630834 2.6444268 -1.3494133
0.18276587 2.6444268 -1.3494133
0.194013 2.6444268 -1.3494133
0.26430756 2.6444268 -1.3494133
-0.67204976 2.6729736 -1.344985
-0.66354275 2.6729736 -1.344985
-0.65503585 2.6729736 -1.344985
-0.64652884 2.6729736 -1.344985
-0.63518625 2.6729736 -1.344985
-0.62384367 2.6729736 -1.344985
-0.61533672 2.6729736 -1.344985
-0.60682976 2.6729736 -1.344985
-0.59548712 2.6729736 -1.344985
-0.58414447 2.6729736 -1.344985
-0.57563752 2.6729736 -1.344985
-0.56996626 2.6729736 -1.344985
-0.38564879 2.6729736 -1.344985
-0.37714183 2.6729736 -1.344985
-0.36296356 2.6729736 -1.344985
-0.35445663 2.6729736 -1.344985
-0.34594965 2.6729736 -1.344985
-0.28072965 2.6729736 -1.344985
0.017013919 2.6729736 -1.344985
0.025520876 2.6729736 -1.344985
0.031192182 2.6729736 -1.344985
0.048206098 2.6729736 -1.344985
0.05671306 2.6729736 -1.344985
0.065220021 2.6729736 -1.344985
0.070891321 2.6729736 -1.344985
-0.39467055 2.699959 -1.3458207
-0.38609076 2.699959 -1.3458207
-0.36893114 2.699959 -1.3458207
-0.35463148 2.699959 -1.3458207
-0.34605169 2.699959 -1.3458207
-0.28599316 2.699959 -1.3458207
-0.26597363 2.699959 -1.3458207
0.0085797943 2.699959 -1.3458207
0.014299657 2.699959 -1.3458207
0.022879452 2.699959 -1.3458207
0.031459246 2.699959 -1.3458207
0.065778427 2.699959 -1.3458207
0.074358225 2.699959 -1.3458207
0.085797951 2.699959 -1.3458207
0.094377741 2.699959 -1.3458207
0.10295753 2.699959 -1.3458207
0.11439726 2.699959 -1.3458207
0.125837 2.699959 -1.3458207
0.13441677 2.699959 -1.3458207
0.14013664 2.699959 -1.3458207
0.22307464 2.699959 -1.3458207
0.23451439 2.699959 -1.3458207
0.2459541 2.699959 -1.3458207
0.25453389 2.699959 -1.3458207
0.26311368 2.699959 -1.3458207
0.27455342 2.699959 -1.3458207
-0.64920443 2.7020087 -1.3404808
-0.62632501 2.7020087 -1.3404808
0.014299657 2.7020087 -1.3404808
0.022879452 2.7020087 -1.3404808
0.034319177 2.7020087 -1.3404808
0.045758903 2.7020087 -1.3404808
0.054338697 2.7020087 -1.3404808
0.062918492 2.7020087 -1.3404808
0.074358225 2.7020087 -1.3404808
0.085797951 2.7020087 -1.3404808
0.094377741 2.7020087 -1.3404808
0.10295753 2.7020087 -1.3404808
0.11153733 2.7020087 -1.3404808
0.12297706 2.7020087 -1.3404808
0.13441677 2.7020087 -1.3404808
0.25453389 2.7020087 -1.3404808
0.26597363 2.7020087 -1.3404808
-0.35480928 2.7284434 -1.3439773
-0.34615541 2.7284434 -1.3439773
-0.30865523 2.7274096 -1.3466704
-0.2942321 2.7274096 -1.3466704
-0.28557822 2.7284434 -1.3439773
-0.27692434 2.7274096 -1.3466704
-0.26827043 2.7274096 -1.3466704
0.0086538857 2.7284434 -1.3439773
0.014423142 2.7284434 -1.3439773
0.02403857 2.7287881 -1.3430796
0.034615539 2.7294772 -1.3412843
0.046154052 2.7294772 -1.3412843
0.054807939 2.7294772 -1.3412843
0.064423367 2.7287881 -1.3430796
0.075000338 2.7294772 -1.3412843
0.083654225 2.7294772 -1.3412843
0.095192738 2.7294772 -1.3412843
0.10480817 2.7287881 -1.3430796
0.11538513 2.7284434 -1.3439772
0.12692365 2.7284434 -1.3439773
0.13557753 2.7284434 -1.3439773
0.14423142 2.7284434 -1.3439773
0.15576994 2.7284434 -1.3439772
0.16442382 2.7284434 -1.3439773
0.1730777 2.7274096 -1.3466704
0.19615474 2.7274096 -1.3466704
0.20480862 2.7274096 -1.3466704
0.2134625 2.7284434 -1.3439773
0.22500102 2.7284434 -1.3439773
0.23653953 2.7284434 -1.3439772
0.24519342 2.7284434 -1.3439773
0.2538473 2.7284434 -1.3439773
0.26538581 2.7284434 -1.3439773
0.27692434 2.7284434 -1.3439772
0.28557822 2.7284434 -1.3439773
0.2942321 2.7274096 -1.3466704
0.30577061 2.7284434 -1.3439773
0.31442451 2.7274096 -1.3466704
0.32211685 2.7280989 -1.344875
0.3346169 2.7284434 -1.3439772
0.34615541 2.7284434 -1.3439773
0.35480928 2.7274096 -1.3466704
0.36634782 2.7274096 -1.3466704
0.3750017 2.7284434 -1.3439772
0.38557866 2.7280989 -1.344875
0.39519408 2.7274096 -1.3466704
0.40480956 2.7280989 -1.344875
0.41442499 2.7280989 -1.344875
-0.13675849 2.7563806 -1.3448181
-0.064014614 2.7553377 -1.3475347
-0.055285346 2.7563806 -1.3448181
-0.046556078 2.7563806 -1.3448181
-0.03491706 2.7563806 -1.3448181
-0.023278041 2.7563806 -1.3448181
-0.014548775 2.7553377 -1.3475347
-0.0029097551 2.7553377 -1.3475347
0.0058195102 2.7563806 -1.3448181
0.014548775 2.7574234 -1.3421017
0.023278041 2.7574234 -1.3421017
0.037826814 2.7574234 -1.3421017
0.043646324 2.7574234 -1.3421017
0.066924363 2.7574234 -1.3421017
0.072743878 2.7574234 -1.3421017
0.11348045 2.7574234 -1.3421017
0.12511946 2.7574234 -1.3421017
0.13384873 2.7574234 -1.3421017
0.15421702 2.7574234 -1.3421017
0.1639162 2.7567282 -1.3439126
0.17458531 2.7563806 -1.3448181
0.1852544 2.7560329 -1.3457236
0.19495359 2.7553377 -1.3475347
0.20368284 2.7553377 -1.3475347
0.21532187 2.7563806 -1.3448182
0.2269609 2.7563806 -1.3448181
0.23569016 2.7574234 -1.3421017
0.24441943 2.7574234 -1.3421017
0.2589682 2.7574234 -1.3421017
0.2647877 2.7563806 -1.3448181
0.27351698 2.7563806 -1.3448181
0.28515601 2.7563806 -1.3448182
0.29679501 2.7563806 -1.3448182
0.31716329 2.7563806 -1.3448181
0.32686248 2.7567282 -1.3439126
0.34044135 2.7574234 -1.3421017
0.35402021 2.7560329 -1.3457236
0.36565924 2.7560329 -1.3457236
0.38408768 2.7553377 -1.3475347
0.39572668 2.7563806 -1.3448182
0.40445596 2.7563806 -1.3448181
0.41609496 2.7574234 -1.3421017
0.42579415 2.7567282 -1.3439127
0.43646324 2.7563806 -1.3448182
0.44519252 2.7563806 -1.3448181
0.45295188 2.7560329 -1.3457236
-0.035223871 2.7858598 -1.3429331
-0.020547256 2.7858598 -1.3429331
-0.014676612 2.7848077 -1.3456733
0.0058706449 2.7848077 -1.3456733
0.014676612 2.7858598 -1.3429331
0.02348258 2.7858598 -1.3429331
0.036202312 2.7851584 -1.3447599
0.047943596 2.784457 -1.3465868
0.055771124 2.7858598 -1.3429331
0.064577095 2.7858598 -1.3429331
0.073383056 2.7858598 -1.3429331
0.13208951 2.7858598 -1.3429331
0.16731338 2.7858598 -1.3429331
0.17611934 2.7858598 -1.3429331
0.19373128 2.7848079 -1.3456734
0.20547256 2.7837558 -1.3484137
0.03553611 2.8148 -1.3437788
-0.62458146 2.6223516 -1.3381485
-0.61621654 2.6223516 -1.3381485
-0.59948665 2.6223516 -1.3381485
-0.63546288 2.6484575 -1.3389132
-0.62421578 2.6484575 -1.3389132
-0.61296862 2.6484575 -1.3389132
-0.60453326 2.6484575 -1.3389132
-0.64652884 2.6750062 -1.3396904
-0.63518625 2.6750062 -1.3396904
-0.62384367 2.6750062 -1.3396904
-0.59832275 2.6750062 -1.3396904
0.01984957 2.6750062 -1.3396904
0.025520876 2.6750062 -1.3396904
0.034973051 2.6756837 -1.3379256
0.02001952 2.7040586 -1.3351408
0.034319177 2.7040586 -1.3351408
0.045758903 2.7040586 -1.3351408
0.054338697 2.7040586 -1.3351408
0.06005856 2.7040586 -1.3351408
0.074358225 2.7040586 -1.3351408
-0.63461828 2.7315447 -1.3358983
0.0086538857 2.7315447 -1.3358983
0.014423142 2.7315447 -1.3358983
0.023077028 2.7315447 -1.3358983
0.033653997 2.7322338 -1.334103
0.047115594 2.7322338 -1.334103
0.054807939 2.7325783 -1.3332052
0.062500283 2.7322338 -1.334103
0.07596188 2.7322338 -1.334103
0.086538851 2.7325783 -1.3332052
0.095192738 2.7325783 -1.3332052
0.10384662 2.7325783 -1.3332052
0.11634668 2.7322338 -1.334103
0.12692365 2.7315447 -1.3358983
0.13557753 2.7315447 -1.3358983
0.15576994 2.7315447 -1.3358983
0.23653953 2.7315447 -1.3358983
0.24519342 2.7315447 -1.3358983
-0.65469486 2.7595088 -1.3366687
-0.64596558 2.7595088 -1.3366687
-0.63432658 2.7595088 -1.3366687
-0.62559736 2.7595088 -1.3366687
-0.61686802 2.7595088 -1.3366687
-0.6023193 2.7595088 -1.3366687
-0.36371937 2.7595088 -1.3366687
-0.35208035 2.7595088 -1.3366687
-0.3433511 2.7595088 -1.3366687
-0.33462182 2.7595088 -1.3366687
-0.03491706 2.7595088 -1.3366687
-0.023278041 2.7595088 -1.3366687
0.0087292651 2.7595088 -1.3366687
0.014548775 2.7595088 -1.3366687
0.023278041 2.7595088 -1.3366687
0.032007307 2.7595088 -1.3366687
0.055285346 2.7595088 -1.3366687
0.064014614 2.7595088 -1.3366687
0.075653628 2.7595088 -1.3366687
0.096021913 2.7595088 -1.3366687
0.10475118 2.7595088 -1.3366687
0.11639021 2.7595088 -1.3366687
0.12511946 2.7595088 -1.3366687
0.13384873 2.7595088 -1.3366687
0.14548776 2.7595088 -1.3366687
0.15421702 2.7595088 -1.3366687
0.16294628 2.7595088 -1.3366687
0.17458531 2.7595088 -1.3366687
0.18331456 2.7595088 -1.3366687
0.21532187 2.7595088 -1.3366687
0.2269609 2.7595088 -1.3366687
0.23569016 2.7595088 -1.3366687
0.24441943 2.7595088 -1.3366687
0.2589682 2.7595088 -1.3366687
0.2647877 2.7595088 -1.3366687
0.27351698 2.7595088 -1.3366687
0.28515601 2.7595088 -1.3366687
0.29679501 2.7595088 -1.3366687
0.39863643 2.7595088 -1.3366687
0.40445596 2.7595088 -1.3366687
0.42482424 2.7595088 -1.3366687
0.43646324 2.7595088 -1.3366687
0.44519252 2.7595088 -1.3366687
0.45392179 2.7595088 -1.3366687
-0.64305586 2.7615943 -1.3312358
-0.63432658 2.7615943 -1.3312358
-0.62559736 2.7615943 -1.3312358
-0.6139583 2.7615943 -1.3312358
-0.026187796 2.7615943 -1.3312358
0.078563385 2.7615943 -1.3312358
0.084382899 2.7615943 -1.3312358
0.093112156 2.7615943 -1.3312358
0.10475118 2.7615943 -1.3312358
0.11639021 2.7615943 -1.3312358
0.12511946 2.7615943 -1.3312358
0.13675849 2.7615943 -1.3312358
0.14548776 2.7615943 -1.3312358
0.15421702 2.7615943 -1.3312358
0.16003653 2.7615943 -1.3312358
-0.035223871 2.7879636 -1.3374523
-0.02348258 2.7879636 -1.3374523
0.035223871 2.7879636 -1.3374523
0.055771124 2.7879636 -1.3374523
0.064577095 2.7879636 -1.3374523
0.076318383 2.7879636 -1.3374523
0.093930319 2.7879636 -1.3374523
0.1056716 2.7879636 -1.3374523
0.11447757 2.7879636 -1.3374523
0.12621886 2.7879636 -1.3374523
0.13208951 2.7879636 -1.3374523
0.16437805 2.7879636 -1.3374523
0.17318402 2.7879636 -1.3374523
0.19373128 2.7879636 -1.3374523
-0.66044754 2.7900674 -1.3319715
-0.6545769 2.7900674 -1.3319715
-0.64577091 2.7900674 -1.3319715
-0.63402963 2.7900674 -1.3319715
-0.62522364 2.7900674 -1.3319715
-0.61641765 2.7900674 -1.3319715
-0.60761172 2.7900674 -1.3319715
-0.58412915 2.7900674 -1.3319715
-0.026417902 2.7900674 -1.3319715
0.055771124 2.7900674 -1.3319715
0.064577095 2.7900674 -1.3319715
0.076318383 2.7900674 -1.3319715
0.085124351 2.7900674 -1.3319715
0.093930319 2.7900674 -1.3319715
0.1056716 2.7900674 -1.3319715
0.11447757 2.7900674 -1.3319715
0.12621886 2.7900674 -1.3319715
0.13208951 2.7900674 -1.3319715
0.16731338 2.7900674 -1.3319715
0.1966666 2.7900674 -1.3319715
-0.062188193 2.8190451 -1.3327203
-0.056265507 2.8179836 -1.335485
-0.038497452 2.8179836 -1.335485
-0.02369074 2.8179839 -1.3354849
-0.014806712 2.8179836 -1.335485
0.0088840276 2.8179836 -1.335485
0.014806712 2.8179836 -1.335485
0.02369074 2.8179836 -1.335485
0.035536107 2.8179836 -1.335485
0.050342821 2.8169224 -1.3382496
-0.24798965 2.8474693 -1.3362712
-0.21512356 2.8474693 -1.3362712
-0.19420876 2.8474693 -1.3362712
-0.18524528 2.8474693 -1.3362712
-0.17329398 2.8474693 -1.3362713
-0.1643305 2.8474693 -1.3362712
-0.15636295 2.8471124 -1.337201
-0.14241976 2.8471124 -1.337201
-0.13445222 2.8474693 -1.3362712
-0.12548873 2.8474693 -1.3362713
-0.11353743 2.8474693 -1.3362712
-0.10457395 2.8474693 -1.3362712
-0.098598294 2.8485401 -1.3334818
-0.083659157 2.8474693 -1.3362712
-0.074695677 2.8474693 -1.3362712
-0.06872002 2.8463986 -1.3390605
-0.050793063 2.8474693 -1.3362712
-0.044817407 2.8463986 -1.3390605
-0.0029878272 2.8463986 -1.3390605
0.0029878272 2.8485401 -1.3334818
-0.63141686 2.76368 -1.3258028
-0.64577091 2.7921712 -1.3264909
-0.63696498 2.7921712 -1.3264909
-0.58412915 2.7921712 -1.3264909
-0.64261132 2.8211675 -1.3271909
-0.093775846 2.8218749 -1.3253478
-0.064162426 2.8225825 -1.3235046
-0.056265507 2.8222289 -1.3244262
-0.03553611 2.8222287 -1.3244262
-0.02369074 2.8222289 -1.3244262
-0.014806712 2.8222289 -1.3244262
-0.0069097988 2.8225825 -1.3235046
0.0069097988 2.8218753 -1.3253478
0.014806712 2.8222289 -1.3244262
0.02369074 2.8222289 -1.3244262
0.03553611 2.8222289 -1.3244262
-0.73600143 2.8521092 -1.3241838
-0.31670967 2.8517523 -1.3251137
-0.30475837 2.8517523 -1.3251137
-0.29579487 2.8517523 -1.3251137
-0.28683141 2.8517523 -1.3251137
-0.27786791 2.8517523 -1.3251137
-0.26591662 2.8517523 -1.3251137
-0.25396532 2.852823 -1.3223243
-0.24798965 2.852823 -1.3223243
-0.23305053 2.852823 -1.3223243
-0.22408703 2.852823 -1.3223243
-0.21512356 2.8517523 -1.3251137
-0.20317224 2.852823 -1.3223243
-0.19420876 2.8517523 -1.3251137
-0.18524528 2.8517523 -1.3251137
-0.17329396 2.8517523 -1.3251137
-0.1643305 2.8517523 -1.3251137
-0.15636295 2.8521092 -1.3241838
-0.1434157 2.8517523 -1.3251137
-0.13445222 2.8517523 -1.3251137
-0.12548873 2.8517523 -1.3251137
-0.11453337 2.8513954 -1.3260435
-0.10457395 2.8506815 -1.327903
-0.050793063 2.8506815 -1.327903
-0.044817407 2.8506815 -1.327903
-0.014939136 2.852823 -1.3223243
-0.69038665 2.8818078 -1.3258131
-0.68435705 2.8818078 -1.3258131
-0.6753127 2.8818078 -1.3258131
-0.66325355 2.8818078 -1.3258131
-0.6542092 2.8818078 -1.3258131
-0.64516485 2.8818076 -1.3258131
-0.63310564 2.8818078 -1.3258131
-0.62406129 2.8818078 -1.3258131
-0.61501694 2.8818076 -1.3258131
-0.60597259 2.8818078 -1.3258131
-0.5959233 2.8814476 -1.3267512
-0.58386409 2.8814476 -1.3267512
-0.57582468 2.8818078 -1.3258131
-0.55472112 2.8818078 -1.3258131
-0.53663242 2.8818076 -1.3258131
-0.52457327 2.8818078 -1.3258131
-0.51552892 2.8818078 -1.3258131
-0.50648451 2.8818076 -1.3258131
-0.7350055 2.8560352 -1.3139561
-0.46610102 2.8560352 -1.3139561
-0.45414972 2.8560352 -1.3139561
-0.44518623 2.8560352 -1.3139561
-0.43622279 2.8560352 -1.3139561
-0.42427143 2.8560352 -1.3139561
-0.41530797 2.8560352 -1.3139561
-0.40634447 2.8560352 -1.3139561
-0.39439318 2.8560352 -1.3139561
-0.72354937 2.8861291 -1.3145549
-0.71450496 2.8861294 -1.3145549
-0.70546061 2.8861291 -1.3145549
-0.6934014 2.8861294 -1.3145549
-0.68435705 2.8861294 -1.3145549
-0.6753127 2.8861291 -1.3145549
-0.66325355 2.8861294 -1.3145549
-0.6542092 2.8861294 -1.3145549
-0.64616972 2.8857691 -1.3154931
-0.63210076 2.8857691 -1.3154931
-0.62406129 2.8861294 -1.3145549
-0.61501694 2.8861294 -1.3145549
-0.60597259 2.8872097 -1.3117404
-0.5959233 2.8864896 -1.3136168
-0.56376553 2.8872097 -1.3117404
-0.55472112 2.8861291 -1.3145549
-0.54567677 2.8872097 -1.3117404
-0.53663242 2.8861294 -1.3145549
-0.52457327 2.8861291 -1.3145549
-0.51552892 2.8861294 -1.3145549
-0.50648451 2.8861291 -1.3145549
-0.49442539 2.8861291 -1.3145549
-0.48538101 2.8861294 -1.3145549
-0.47935143 2.8861294 -1.3145549
-0.72354937 2.8893704 -1.3061112
-0.71450496 2.8893704 -1.3061112
-0.70546061 2.8893704 -1.3061112
-0.69340146 2.8893704 -1.3061112
-0.68435705 2.8893704 -1.3061112
-0.6753127 2.8893704 -1.3061112
-0.66325355 2.8893704 -1.3061112
-0.6542092 2.8893704 -1.3061112
-0.64516485 2.8893704 -1.3061112
