# .PCD v0.7 - Point Cloud Data file format
VERSION 0.7
FIELDS x y z
SIZE 4 4 4
TYPE F F F
COUNT 1 1 1
WIDTH 1479
HEIGHT 1
VIEWPOINT 0 0 0 1 0 0 0
POINTS 1479
DATA ascii
0.45497498 2.8594944 -1.1511079
0.46378094 2.8594944 -1.1511079
0.49606949 2.8594944 -1.1511079
0.50781077 2.8594944 -1.1511079
0.51368141 2.8594944 -1.1511079
0.52542269 2.8594944 -1.1511079
0.53422868 2.8594944 -1.1511079
0.54596996 2.8584425 -1.1538482
0.55477595 2.8594944 -1.1511079
0.60761172 2.8594944 -1.1511079
0.61641765 2.8584425 -1.1538482
0.62522364 2.8584425 -1.1538482
0.46493077 2.8890874 -1.1502532
0.47085345 2.8890874 -1.1502532
0.61892056 2.8890874 -1.1502532
0.67431223 1.6968342 -1.1449497
0.67817682 1.710393 -1.1415243
0.68581825 1.710393 -1.1415243
0.46504706 2.748173 -1.1490841
0.47638971 2.748173 -1.1490841
0.48489666 2.748173 -1.1490841
0.49340361 2.748173 -1.1490841
0.50191057 2.748173 -1.1490841
0.51892447 2.748173 -1.1490841
0.5245958 2.748173 -1.1490841
0.53310275 2.748173 -1.1490841
0.5444454 2.748173 -1.1490841
0.55578798 2.748173 -1.1490841
0.56713057 2.748173 -1.1490841
0.57563752 2.748173 -1.1490841
0.58414447 2.748173 -1.1490841
0.6266793 2.748173 -1.1490841
0.46504706 2.7502055 -1.1437894
0.47638971 2.7502055 -1.1437894
0.48489666 2.7502055 -1.1437894
0.49056795 2.7502055 -1.1437894
0.55862361 2.7502055 -1.1437894
0.6266793 2.7502055 -1.1437894
0.4633089 2.7768273 -1.1455725
0.47474861 2.7768271 -1.1455725
0.48618835 2.7768273 -1.1455725
0.49476814 2.7768271 -1.1455725
0.50334793 2.7768273 -1.1455725
0.51192772 2.7758021 -1.1482425
0.52622736 2.7758021 -1.1482425
0.53480721 2.7758021 -1.1482425
0.54243368 2.7764854 -1.1464626
0.55577999 2.7764854 -1.1464626
0.56626642 2.7768271 -1.1455725
0.57484621 2.7768271 -1.1455725
0.583426 2.7768271 -1.1455725
0.59486574 2.7768271 -1.1455725
0.60630548 2.7758021 -1.1482425
0.61488527 2.7768271 -1.1455725
0.62346506 2.7768271 -1.1455725
0.46442518 2.8059752 -1.142
0.47307906 2.8059752 -1.142
0.48461759 2.8059752 -1.142
0.49519455 2.8045969 -1.1455907
0.50480998 2.8039076 -1.147386
0.51346385 2.8039076 -1.147386
0.52500236 2.8039076 -1.147386
0.5451948 2.8039076 -1.147386
0.55481023 2.8045969 -1.1455907
0.56538719 2.8049414 -1.1446929
0.57692569 2.8049414 -1.1446929
0.58557957 2.8049414 -1.1446929
0.59327191 2.8045969 -1.1455907
0.60288733 2.8039076 -1.147386
0.61442584 2.8039076 -1.147386
0.62307972 2.8049414 -1.1446929
0.46556079 2.833545 -1.1437979
0.47429007 2.8345878 -1.1410815
0.48301935 2.833545 -1.1437979
0.49562827 2.8331974 -1.1447034
0.50629735 2.8325021 -1.1465144
0.51502663 2.833545 -1.1437979
0.52375591 2.8325021 -1.1465144
0.53248519 2.8325021 -1.1465144
0.54994369 2.8325021 -1.1465144
0.55576319 2.833545 -1.1437979
0.56449246 2.833545 -1.1437979
0.57613146 2.833545 -1.1437979
0.58486074 2.833545 -1.1437979
0.59359002 2.833545 -1.1437979
0.6023193 2.8325021 -1.1465144
0.62559736 2.833545 -1.1437979
0.45497498 2.8626504 -1.1428868
0.46378094 2.8615985 -1.1456271
0.47552222 2.8626504 -1.1428868
0.48432818 2.8626504 -1.1428868
0.49313417 2.8626504 -1.1428868
0.50487542 2.8626504 -1.1428868
0.5166167 2.8626504 -1.1428868
0.52542269 2.8626504 -1.1428868
0.53422868 2.8626504 -1.1428868
0.54596996 2.8626504 -1.1428868
0.55477595 2.8626504 -1.1428868
0.56358194 2.8626504 -1.1428868
0.57532322 2.8626504 -1.1428868
0.5870645 2.8626504 -1.1428868
0.59587044 2.8626504 -1.1428868
0.60467637 2.8626504 -1.1428868
0.61739612 2.8622997 -1.1438003
0.62522364 2.8626504 -1.1428868
0.45604673 2.8912101 -1.1447239
0.46493077 2.8912101 -1.1447239
0.47085345 2.8912101 -1.1447239
0.4886215 2.8912101 -1.1447239
0.49454418 2.8912101 -1.1447239
0.50342822 2.8912101 -1.1447239
0.51527357 2.8912101 -1.1447239
0.52415764 2.8912101 -1.1447239
0.53304166 2.8912101 -1.1447239
0.54488701 2.8912101 -1.1447239
0.55377102 2.8912101 -1.1447239
0.61595923 2.8912101 -1.1447239
0.62484324 2.8912101 -1.1447239
0.46908885 2.919209 -1.1493829
0.47506452 2.919209 -1.1493829
0.53482103 2.919209 -1.1493829
0.5407967 2.919209 -1.1493829
0.45116189 2.9213505 -1.1438042
0.46610105 2.9213505 -1.1438042
0.47506452 2.9213505 -1.1438042
0.53482103 2.9213505 -1.1438042
0.5437845 2.9213505 -1.1438042
0.55573583 2.9213505 -1.1438042
0.53964722 2.949873 -1.1484966
0.54567677 2.949873 -1.1484966
0.55170637 2.949873 -1.1484966
0.46729228 2.9520338 -1.1428674
0.47633666 2.9520338 -1.1428674
0.50949931 2.9520338 -1.1428674
0.52758807 2.9520338 -1.1428674
0.53663242 2.9520338 -1.1428674
0.54567677 2.9520338 -1.1428674
0.55472112 2.9520338 -1.1428674
0.56678033 2.9520338 -1.1428674
0.61803174 2.9520338 -1.1428674
0.45532206 2.9825487 -1.1438071
0.46546289 2.9832757 -1.1419137
0.47458959 2.9821854 -1.1447538
0.48371634 2.9821854 -1.1447538
0.54456115 2.9821854 -1.1447538
0.55368787 2.9821854 -1.1447538
0.56585681 2.9832757 -1.1419137
0.44517857 3.0150909 -1.1409419
0.45438915 3.0150909 -1.1409419
0.47588056 3.0150909 -1.1409419
0.48816136 3.0139906 -1.1438081
0.67621171 1.6992848 -1.1385659
0.67817682 1.7124468 -1.1361738
0.68581825 1.7124468 -1.1361738
0.6266793 2.7532539 -1.1358476
0.46330887 2.7799017 -1.1375626
0.47474861 2.7799017 -1.1375626
0.4833284 2.7799017 -1.1375626
0.62346506 2.7799017 -1.1375626
0.62632501 2.7819517 -1.1322227
0.46442518 2.8080428 -1.1366138
0.47019443 2.8080428 -1.1366138
0.62596434 2.8080428 -1.1366138
0.47552222 2.8658061 -1.1346657
0.55477595 2.8658061 -1.1346657
0.56358194 2.8658061 -1.1346657
0.57532322 2.8658061 -1.1346657
0.5870645 2.8658061 -1.1346657
0.59587044 2.8658061 -1.1346657
0.60174108 2.8658061 -1.1346657
0.62522364 2.8658061 -1.1346657
0.45505962 2.8940401 -1.1373515
0.47677612 2.8943939 -1.13643
0.48566017 2.8943939 -1.13643
0.49454418 2.8943939 -1.13643
0.50342822 2.8943939 -1.13643
0.51527357 2.8943939 -1.13643
0.52415764 2.8943939 -1.13643
0.54488701 2.8933325 -1.1391946
0.55771953 2.8940401 -1.1373515
0.56561643 2.8954551 -1.1336653
0.57450044 2.8954551 -1.1336653
0.58930713 2.8943939 -1.13643
0.5952298 2.8954551 -1.1336653
0.60411388 2.8943939 -1.13643
0.61595923 2.8943939 -1.13643
0.62484324 2.8943939 -1.13643
0.45414972 2.9245629 -1.1354361
0.46610105 2.923492 -1.1382254
0.47506452 2.923492 -1.1382254
0.49896714 2.9245627 -1.1354361
0.50494277 2.923492 -1.1382254
0.51390624 2.9245627 -1.1354361
0.52585757 2.923492 -1.1382254
0.55573583 2.923492 -1.1382254
0.56469935 2.923492 -1.1382254
0.57465869 2.9249198 -1.1345062
0.58561409 2.9256334 -1.1326467
0.59457761 2.9245627 -1.1354361
0.60354108 2.9245629 -1.1354361
0.61549234 2.923492 -1.1382254
0.45523313 2.9541945 -1.1372384
0.4612627 2.9541945 -1.1372384
0.48538101 2.9552751 -1.1344239
0.49141058 2.9563556 -1.1316093
0.50648451 2.9552751 -1.1344239
0.51552892 2.9552751 -1.1344239
0.52457327 2.9552751 -1.1344239
0.53361762 2.9552751 -1.1344239
0.55773592 2.9541945 -1.1372384
0.56778526 2.9549148 -1.135362
0.57582468 2.9552751 -1.1344239
0.58486903 2.9552751 -1.1344239
0.59692824 2.9552751 -1.1344239
0.60597259 2.9552751 -1.1344239
0.61200213 2.9552751 -1.1344239
0.45735022 2.9861829 -1.1343398
0.46546289 2.9865463 -1.133393
0.47560367 2.9861829 -1.1343398
0.48980081 2.9865463 -1.133393
0.49588528 2.9876366 -1.1305529
0.50602609 2.9869099 -1.1324463
0.51413876 2.9865463 -1.133393
0.5263077 2.9876366 -1.1305529
0.53847665 2.985456 -1.1362333
0.54456115 2.985456 -1.1362333
0.55368787 2.985456 -1.1362333
0.5688991 2.9865463 -1.133393
0.58106804 2.9865463 -1.133393
0.59627926 2.9876366 -1.1305529
0.60540599 2.9865463 -1.133393
0.61453271 2.9865465 -1.133393
0.44517857 3.0172915 -1.1352093
0.45438915 3.0172915 -1.1352093
0.46666998 3.0172915 -1.1352093
0.47588056 3.0172915 -1.1352093
0.48509115 3.0172915 -1.1352093
0.44930723 3.0497162 -1.134166
0.4555046 3.0486059 -1.137059
0.67621171 1.7054112 -1.1226062
0.68570906 1.7054112 -1.122606
0.67690325 1.7181519 -1.1213115
0.6266793 2.7583351 -1.1226109
0.62632501 2.7850263 -1.1242127
0.56358194 2.8679099 -1.129185
0.57532322 2.8679099 -1.129185
0.58999979 2.8679099 -1.129185
0.57825851 2.8700137 -1.1237043
0.47677612 2.8986387 -1.1253715
0.48566017 2.8986387 -1.1253715
0.56561643 2.8975775 -1.128136
0.57746178 2.8975775 -1.128136
0.58338445 2.8975775 -1.128136
0.48701581 2.9277749 -1.1270679
0.49299148 2.9288456 -1.1242785
0.49442536 2.9585164 -1.1259803
0.51552892 2.9585164 -1.1259803
0.52457327 2.9585164 -1.1259803
0.55773592 2.9585164 -1.1259803
0.56979507 2.9585164 -1.1259803
0.58486903 2.9585164 -1.1259803
0.59391344 2.9585164 -1.1259803
0.51552892 2.9606771 -1.1203511
0.52758807 2.9606771 -1.1203511
0.53663242 2.9606771 -1.1203511
0.54567677 2.9606771 -1.1203511
0.55472112 2.9606771 -1.1203511
0.56979507 2.9606771 -1.1203511
0.58185422 2.9606771 -1.1203511
0.48980081 2.9898171 -1.1248726
0.49588528 2.9898171 -1.1248726
0.50501204 2.9898171 -1.1248726
0.51413876 2.9898171 -1.1248726
0.52326548 2.9898171 -1.1248726
0.5688991 2.9898171 -1.1248726
0.57498354 2.9898171 -1.1248726
0.58411026 2.9898171 -1.1248726
0.59627926 2.9898171 -1.1248726
0.60540599 2.9898171 -1.1248726
0.61453271 2.9898171 -1.1248726
0.44517857 3.0194919 -1.1294767
0.45745936 3.0194919 -1.1294767
0.46666998 3.0194919 -1.1294767
0.47588056 3.0194919 -1.1294767
0.48509115 3.0194919 -1.1294767
0.45745936 3.0216925 -1.1237441
0.46666998 3.0216925 -1.1237441
0.47588056 3.0216925 -1.1237441
0.48509115 3.0216925 -1.1237441
0.44930723 3.0519371 -1.1283803
0.4555046 3.0519371 -1.1283803
0.67804617 1.6964245 -1.1144817
0.6781112 1.7081339 -1.1155128
0.68570906 1.7081341 -1.1155128
0.67435616 1.7199775 -1.1165557
0.67626643 1.7213467 -1.1129887
0.52758807 2.9628379 -1.114722
0.53663242 2.9628379 -1.114722
0.54567677 2.9628379 -1.114722
0.55472112 2.9628379 -1.114722
0.48980081 2.9930878 -1.1163521
0.49588528 2.9930878 -1.1163521
0.50501204 2.9930878 -1.1163521
0.51413876 2.9930878 -1.1163521
0.52326548 2.9930878 -1.1163521
0.5688991 2.9919975 -1.1191922
0.57498354 2.9919975 -1.1191922
0.58411026 2.9930878 -1.1163521
0.59627926 2.9930878 -1.1163521
0.60540599 2.9930878 -1.1163521
0.61453271 2.9930878 -1.1163521
0.44517857 3.0260935 -1.1122791
0.45541254 3.0253601 -1.11419
0.46666998 3.0249934 -1.1151453
0.47588056 3.0249934 -1.1151453
0.48406777 3.0246267 -1.1161008
0.6781112 1.7115376 -1.1066463
0.67490196 1.7236941 -1.106874
0.68390781 1.7240853 -1.1058549
0.52758807 2.9660792 -1.1062784
0.53663242 2.9660792 -1.1062784
0.54567677 2.9660792 -1.1062784
0.55472112 2.966079 -1.1062784
0.56678033 2.9671595 -1.1034639
0.48675859 2.9974487 -1.1049913
0.49588528 2.9963584 -1.1078315
0.50501204 2.9963584 -1.1078315
0.51413876 2.9963584 -1.1078315
0.5263077 2.9963584 -1.1078315
0.5323922 2.9974487 -1.1049913
0.58715254 2.9963584 -1.1078315
0.59526515 2.9970853 -1.1059381
0.60540599 2.9963584 -1.1078315
0.61453271 2.9963584 -1.1078315
0.44517857 3.0282941 -1.1065465
0.45438915 3.0282941 -1.1065465
0.46666998 3.0282941 -1.1065465
0.47588056 3.0282941 -1.1065465
0.44517857 3.0304947 -1.100814
0.45131898 3.0304947 -1.100814
0.68475932 1.7159622 -1.0951198
0.68199754 1.7268236 -1.0987209
0.51552892 2.9693203 -1.0978347
0.53663242 2.9693203 -1.0978347
0.54567677 2.9693203 -1.0978347
0.55472112 2.9693203 -1.0978347
0.56678033 2.9693203 -1.0978347
0.57582468 2.9693203 -1.0978347
0.48538101 2.9714811 -1.0922056
0.49442536 2.9714811 -1.0922056
0.50648451 2.9714811 -1.0922056
0.51552892 2.9714811 -1.0922056
0.52155846 2.9714811 -1.0922056
0.53663242 2.9714811 -1.0922056
0.54567677 2.9714811 -1.0922056
0.55472112 2.9714811 -1.0922056
0.56678033 2.9714811 -1.0922056
0.57582468 2.9714811 -1.0922056
0.58185422 2.9714811 -1.0922056
0.59692824 2.9714811 -1.0922056
0.60597259 2.9714811 -1.0922056
0.61501694 2.9714811 -1.0922056
0.45633614 3.0028999 -1.0907905
0.46546289 3.0028999 -1.0907905
0.47560367 3.0021732 -1.0926839
0.48371634 3.0018096 -1.0936307
0.5323922 3.0028999 -1.0907905
0.67804617 1.7086079 -1.082743
0.6781112 1.7183447 -1.0889132
0.48538101 2.9736419 -1.0865766
0.49442539 2.9747221 -1.0837619
0.50648451 2.9747221 -1.0837619
0.51552892 2.9747224 -1.0837619
0.52356833 2.9743621 -1.0847002
0.53663242 2.9747221 -1.0837619
0.54567677 2.9747224 -1.0837619
0.55472112 2.9747221 -1.0837619
0.56678033 2.9747221 -1.0837619
0.57582468 2.9747224 -1.0837619
0.58486903 2.9747221 -1.0837619
0.59692824 2.9747224 -1.0837619
0.60597259 2.9736419 -1.0865766
0.61501694 2.9747224 -1.0837619
0.45633614 3.0050805 -1.0851101
0.46546289 3.0050805 -1.0851101
0.47458959 3.0050805 -1.0851101
0.48371634 3.0050805 -1.0851101
0.67801392 1.7051439 -1.0761759
0.62632501 2.8044996 -1.0734832
0.48104018 2.9491897 -1.0712804
0.60055327 2.9491897 -1.0712804
0.52457327 2.9779634 -1.0753183
0.53663242 2.9779634 -1.0753183
0.54567677 2.9779634 -1.0753183
0.55472112 2.9779634 -1.0753183
0.56678033 2.9779634 -1.0753183
0.57582468 2.9779634 -1.0753183
0.58185422 2.9779634 -1.0753183
0.61501694 2.9779634 -1.0753183
0.45633614 3.007261 -1.0794297
0.46546289 3.0083513 -1.0765896
0.47458959 3.0083513 -1.0765896
0.5688991 3.0094414 -1.0737494
0.67791772 1.6934758 -1.0601481
0.6770426 1.702682 -1.0669987
0.67804617 1.7167301 -1.0615839
0.62702757 2.754261 -1.0632856
0.6266793 2.7806916 -1.0643702
0.62632501 2.8065493 -1.0681432
0.48402801 2.9524019 -1.0629122
0.49597931 2.9524019 -1.0629122
0.50494277 2.9524019 -1.0629122
0.51291031 2.9527588 -1.0619825
0.58561409 2.9513311 -1.0657016
0.59457761 2.9513311 -1.0657016
0.60055327 2.9513311 -1.0657016
0.45523313 2.9822853 -1.0640602
0.47935143 2.9812047 -1.0668747
0.52758807 2.9812047 -1.0668747
0.53663242 2.9812047 -1.0668747
0.54567677 2.9812047 -1.0668747
0.55472112 2.9812047 -1.0668747
0.56778526 2.9808445 -1.0678129
0.57582468 2.9812047 -1.0668747
0.58386409 2.9808445 -1.0678129
0.59692824 2.9812047 -1.0668747
0.60597259 2.9812047 -1.0668747
0.61501694 2.9812047 -1.0668747
0.47763184 3.011622 -1.0680691
0.55673009 3.011622 -1.0680691
0.67791772 1.6954837 -1.0549176
0.67798167 1.7063837 -1.0573554
0.68298978 1.707954 -1.0532643
0.67804617 1.7187607 -1.0562942
0.68182355 1.7187607 -1.0562942
0.67804617 1.7207912 -1.0510044
0.68182355 1.7207912 -1.0510044
0.62736976 2.7322681 -1.0518061
0.62702757 2.7582917 -1.0527854
0.6266793 2.7837403 -1.0564282
0.48402798 2.9556141 -1.0545441
0.49597931 2.9556141 -1.0545441
0.50494277 2.9556141 -1.0545441
0.51390624 2.9556141 -1.0545441
0.58262628 2.9556141 -1.0545441
0.45523313 2.9855266 -1.0556165
0.46427751 2.9855266 -1.0556165
0.47734156 2.9858866 -1.0546783
0.52758807 2.984446 -1.058431
0.53663242 2.9855263 -1.0556165
0.54567677 2.9855266 -1.0556165
0.55572605 2.9858866 -1.0546783
0.56678033 2.9855266 -1.0556165
0.57582468 2.9855266 -1.0556165
0.58386409 2.9851663 -1.0565547
0.59692824 2.9855266 -1.0556165
0.60597259 2.9855266 -1.0556165
0.61501694 2.9855266 -1.0556165
0.67678708 1.7234987 -1.0439514
0.68182355 1.7228217 -1.0457146
0.62702757 2.7613146 -1.0449103
0.6266793 2.7867889 -1.0484862
0.48402798 2.9588265 -1.046176
0.49597931 2.9588265 -1.046176
0.50494277 2.9588263 -1.046176
0.51390624 2.9588263 -1.046176
0.52286977 2.959897 -1.0433866
0.58262628 2.959897 -1.0433866
0.45523313 2.9887676 -1.0471729
0.46427751 2.9887676 -1.0471729
0.47633666 2.9887676 -1.0471729
0.48538101 2.9887676 -1.0471729
0.49141058 2.9887676 -1.0471729
0.53964722 2.9887676 -1.0471729
0.54567677 2.9887676 -1.0471729
0.55472112 2.9887676 -1.0471729
0.56678033 2.9887676 -1.0471729
0.57582468 2.9887676 -1.0471729
0.60597259 2.9887676 -1.0471729
0.61501694 2.9887676 -1.0471729
0.46427751 2.9909284 -1.0415437
0.47633666 2.9909284 -1.0415437
0.48538101 2.9909284 -1.0415437
0.49744016 2.9909284 -1.0415437
0.50949931 2.9909284 -1.0415437
0.55170637 2.9909284 -1.0415437
0.56678033 2.9909284 -1.0415437
0.57582468 2.9909284 -1.0415437
0.59994298 2.9909284 -1.0415437
0.60597259 2.9909284 -1.0415437
0.61501694 2.9909284 -1.0415437
0.67610359 1.7158062 -1.0328089
0.68267679 1.7147967 -1.0354389
0.62702757 2.7643375 -1.0370352
0.45116189 2.96418 -1.0322291
0.48701581 2.96418 -1.0322291
0.49697527 2.9627523 -1.0359483
0.50494277 2.9620385 -1.0378078
0.51390624 2.9631093 -1.0350184
0.52585757 2.963109 -1.0350184
0.53482103 2.96418 -1.0322291
0.5407967 2.96418 -1.0322291
0.55274802 2.96418 -1.0322291
0.57665062 2.9631093 -1.0350184
0.58561409 2.963109 -1.0350184
0.59457761 2.9620385 -1.0378078
0.46427751 2.9941695 -1.0331001
0.47633666 2.9941695 -1.0331001
0.48538101 2.9930892 -1.0359147
0.49744016 2.9930892 -1.0359147
0.50748944 2.9938095 -1.0340383
0.61200213 2.9930892 -1.0359147
0.67672962 1.718274 -1.0263801
0.68173778 1.7184983 -1.0257956
0.67798167 1.7205175 -1.0205356
0.68173778 1.7205175 -1.0205356
0.62736976 2.7432597 -1.0231719
0.62702757 2.7673604 -1.0291603
0.45116189 2.9673924 -1.0238609
0.48502395 2.9677494 -1.0229311
0.49597931 2.9684632 -1.0210716
0.51390624 2.9673924 -1.0238609
0.52585757 2.9673924 -1.0238609
0.53482103 2.9673924 -1.0238609
0.54378456 2.9673924 -1.0238609
0.55573583 2.9673924 -1.0238609
0.56469935 2.9673924 -1.0238609
0.57366276 2.9673924 -1.0238609
0.58561409 2.9673924 -1.0238609
0.59457761 2.9673924 -1.0238609
0.60254514 2.9677494 -1.0229311
0.61549234 2.9673924 -1.0238609
0.46427751 2.9974108 -1.0246565
0.47633666 2.9974108 -1.0246565
0.68173778 1.7225366 -1.0152757
0.45116189 2.9706047 -1.0154928
0.48402798 2.9706047 -1.0154928
0.49597931 2.9706047 -1.0154928
0.50494277 2.9706047 -1.0154928
0.51390624 2.9706047 -1.0154928
0.52585757 2.9706047 -1.0154928
0.53482103 2.9706047 -1.0154928
0.5437845 2.9706047 -1.0154928
0.55573583 2.9706047 -1.0154928
0.56469935 2.9706047 -1.0154928
0.57366276 2.9706047 -1.0154928
0.58561409 2.9706047 -1.0154928
0.60354108 2.9706047 -1.0154928
0.61549234 2.9706047 -1.0154928
0.47332186 2.9995716 -1.0190274
0.47332186 3.0017323 -1.0133983
0.57450044 2.9463949 -1.000962
0.5873329 2.9456875 -1.0028051
0.5952298 2.9463949 -1.000962
0.60707521 2.9463949 -1.000962
0.45414972 2.9738169 -1.0071247
0.46311322 2.9738169 -1.0071247
0.47506452 2.9738169 -1.0071247
0.48402798 2.9738169 -1.0071247
0.49597931 2.9738169 -1.0071247
0.50494277 2.9738169 -1.0071247
0.51390624 2.9738169 -1.0071247
0.52585757 2.9738169 -1.0071247
0.53482103 2.9738169 -1.0071247
0.54378456 2.9738169 -1.0071247
0.55673176 2.97346 -1.0080544
0.56469935 2.9727461 -1.009914
0.57067496 2.9727461 -1.009914
0.60652888 2.9727461 -1.009914
0.47332186 3.0038931 -1.0077692
0.68165278 1.7175695 -0.99738216
0.62736976 2.7542515 -0.99453771
0.54784834 2.9485176 -0.99543273
0.55969375 2.9485176 -0.99543273
0.56561643 2.9485176 -0.99543273
0.57450044 2.9485176 -0.99543273
0.58634579 2.9485176 -0.99543273
0.5952298 2.9485176 -0.99543273
0.60411388 2.9485176 -0.99543273
0.45414972 2.9780998 -0.99596721
0.46510509 2.9784567 -0.99503738
0.47506452 2.9780998 -0.99596721
0.48402798 2.9770291 -0.99875659
0.49299148 2.9770291 -0.99875659
0.50494277 2.9770291 -0.99875659
0.51390624 2.9770291 -0.99875659
0.52286977 2.9780998 -0.99596721
0.53482103 2.9770291 -0.99875659
0.5407967 2.9770291 -0.99875659
0.67785436 1.7093295 -0.98835671
0.47677612 2.9527626 -0.98437417
0.48566017 2.9527626 -0.98437417
0.49454418 2.9517012 -0.98713881
0.50342822 2.9527626 -0.98437417
0.51231223 2.9527626 -0.98437417
0.52415764 2.9517012 -0.98713881
0.53304166 2.9527626 -0.98437417
0.54488701 2.9517012 -0.98713881
0.55673242 2.9517012 -0.98713881
0.56561643 2.9517012 -0.98713881
0.57450044 2.9517012 -0.98713881
0.58634579 2.9517012 -0.98713875
0.5952298 2.9517012 -0.98713881
0.60411388 2.9517012 -0.98713875
0.61595923 2.9517012 -0.98713875
0.45414972 2.9823828 -0.9848097
0.46610102 2.9823828 -0.9848097
0.47506452 2.9823828 -0.9848097
0.67785436 1.7133226 -0.97795403
0.47677612 2.9559464 -0.97608018
0.48566017 2.9559462 -0.97608018
0.49454418 2.9559464 -0.97608018
0.50342822 2.9559462 -0.97608018
0.51527357 2.9559462 -0.97608018
0.52415764 2.9559464 -0.97608018
0.53304166 2.9559464 -0.97608018
0.54488701 2.9559464 -0.97608018
0.55673242 2.9559464 -0.97608018
0.56561643 2.9559464 -0.97608018
0.57450044 2.9559464 -0.97608024
0.58634579 2.9559464 -0.97608024
0.5952298 2.9559464 -0.97608018
0.60411388 2.9559464 -0.97608024
0.61595923 2.9559462 -0.97608018
0.45414972 2.9866657 -0.97365218
0.46610102 2.9866657 -0.97365218
0.47506452 2.9866657 -0.97365218
0.47677612 2.95913 -0.96778625
0.48566017 2.95913 -0.96778625
0.49454418 2.95913 -0.96778625
0.50342822 2.95913 -0.96778625
0.51527357 2.95913 -0.96778625
0.52415764 2.95913 -0.96778625
0.53304166 2.95913 -0.96778625
0.54488701 2.95913 -0.96778625
0.55673242 2.95913 -0.96778625
0.56561643 2.95913 -0.96778625
0.57450044 2.95913 -0.96778625
0.58634579 2.95913 -0.96778625
0.5952298 2.95913 -0.96778625
0.60411388 2.95913 -0.96778625
0.47677612 2.9612525 -0.96225697
0.48566017 2.9612525 -0.96225697
0.49454418 2.9612525 -0.96225697
0.50342822 2.9612525 -0.96225697
0.51527357 2.9612525 -0.96225697
0.52415764 2.9612525 -0.96225697
0.53304166 2.9612525 -0.96225697
0.54488701 2.9612525 -0.96225697
0.55673242 2.9612525 -0.96225697
0.56561643 2.9612525 -0.96225697
0.57450044 2.9612525 -0.96225697
0.58634579 2.9612525 -0.96225697
0.5952298 2.9612525 -0.96225697
0.60411388 2.9612525 -0.96225697
0.45414972 2.9898779 -0.96528405
0.46610105 2.9898779 -0.96528405
0.47506452 2.9898779 -0.96528405
0.47677612 2.9644363 -0.95396298
0.48566017 2.9644365 -0.95396298
0.49454418 2.9644363 -0.95396298
0.50342822 2.9644365 -0.95396298
0.51527357 2.9644365 -0.95396298
0.52415764 2.9644363 -0.95396298
0.53304166 2.9644363 -0.95396292
0.54488701 2.9644363 -0.95396292
0.55673242 2.9644363 -0.95396292
0.56561643 2.9644363 -0.95396298
0.57450044 2.9644363 -0.95396292
0.58634579 2.9644365 -0.95396298
0.5952298 2.9644363 -0.95396298
0.60411388 2.9644365 -0.95396298
0.45414972 2.9930902 -0.95691597
0.46610102 2.9930902 -0.95691597
0.47506452 2.9930902 -0.95691597
0.47633666 3.0255013 -0.95147824
0.47491461 3.2192326 -0.95237654
0.48447669 3.2192326 -0.95237654
0.4940387 3.2192326 -0.95237654
0.50041342 3.2192326 -0.95237654
0.47677612 2.9686813 -0.94290441
0.48664728 2.9683275 -0.94382596
0.49454418 2.9686813 -0.94290441
0.50342822 2.9686813 -0.94290447
0.51527357 2.9686813 -0.94290447
0.52415764 2.9686813 -0.94290441
0.53304166 2.9686813 -0.94290441
0.54488701 2.9686813 -0.94290441
0.55673242 2.9686813 -0.94290447
0.56561643 2.9686813 -0.94290441
0.57450044 2.9686813 -0.94290447
0.58634579 2.9686813 -0.94290441
0.5952298 2.9686813 -0.94290441
0.60411388 2.9686813 -0.94290441
0.45414972 2.9973731 -0.94575846
0.46510509 2.9970162 -0.94668823
0.47506452 2.9963024 -0.94854784
0.48502395 2.99773 -0.94482869
0.49597931 2.9984438 -0.94296908
0.50494277 2.9984438 -0.94296908
0.51390624 2.9984438 -0.94296908
0.52286977 2.9984438 -0.94296908
0.45523313 3.0298228 -0.94022006
0.46427751 3.0287426 -0.94303459
0.47633666 3.027662 -0.94584918
0.48538101 3.0298228 -0.94022006
0.49141058 3.0287423 -0.94303465
0.50346977 3.0298228 -0.94022006
0.45329392 3.0595925 -0.94310129
0.47763184 3.0585022 -0.94594145
0.48371634 3.0585022 -0.94594145
0.44517857 3.0899086 -0.94603503
0.45745936 3.0899086 -0.94603503
0.48509115 3.0899086 -0.94603503
0.44517857 3.0921092 -0.94030249
0.45438915 3.0921092 -0.94030249
0.46666998 3.0921092 -0.94030249
0.47588056 3.0921092 -0.94030249
0.48509115 3.0921092 -0.94030249
0.46170193 3.1230068 -0.94323742
0.48649129 3.1230068 -0.94323742
0.49268863 3.1230068 -0.94323742
0.50199962 3.1888151 -0.94337779
0.4462285 3.2215171 -0.94642526
0.45579055 3.2215171 -0.94642526
0.46535259 3.2215171 -0.94642526
0.47491461 3.2215171 -0.94642526
0.48447669 3.2215171 -0.94642526
0.4940387 3.2226591 -0.94344962
0.50360072 3.2226593 -0.94344962
0.46661612 3.2548485 -0.9495312
0.47627026 3.2560017 -0.94652689
0.48592439 3.2560017 -0.94652689
0.49450585 3.256386 -0.94552547
0.52415764 2.9718649 -0.93461043
0.53304166 2.9718649 -0.93461043
0.54488701 2.9718649 -0.93461043
0.55673242 2.9718649 -0.93461043
0.56561643 2.9718649 -0.93461043
0.57450044 2.9718649 -0.93461043
0.58634579 2.9718649 -0.93461043
0.5952298 2.9718649 -0.93461043
0.60411388 2.9718649 -0.93461043
0.45116189 3.0005853 -0.93739033
0.48104018 3.0005853 -0.93739033
0.49498335 3.0012991 -0.93553072
0.50494277 3.0016561 -0.93460095
0.51390624 3.0016561 -0.93460095
0.52585757 3.0016561 -0.93460095
0.53482103 3.0027268 -0.93181157
0.5407967 3.0027268 -0.93181157
0.56469935 3.0027268 -0.93181157
0.57366276 3.0027268 -0.93181157
0.58262628 3.0027268 -0.93181157
0.59457761 3.0027268 -0.93181157
0.60354108 3.0016561 -0.93460095
0.45523313 3.0319836 -0.93459094
0.46427751 3.0319836 -0.93459094
0.48538101 3.0319836 -0.93459094
0.49442536 3.0319836 -0.93459094
0.50648451 3.0319836 -0.93459094
0.51552892 3.0319836 -0.93459094
0.52758807 3.0319836 -0.93459094
0.53663242 3.0319836 -0.93459094
0.54567677 3.0319836 -0.93459094
0.60597259 3.0319836 -0.93459094
0.44720945 3.0617731 -0.9374209
0.45937839 3.0617731 -0.9374209
0.46546289 3.0617731 -0.9374209
0.47154737 3.0617731 -0.9374209
0.48980081 3.0628633 -0.93458074
0.49588528 3.0628633 -0.93458074
0.50501204 3.0628633 -0.93458074
0.51413876 3.0639534 -0.93174058
0.52326548 3.0639534 -0.93174058
0.53644848 3.0632267 -0.93363404
0.54456115 3.0639534 -0.93174058
0.55368787 3.0639534 -0.93174058
0.56585681 3.0639534 -0.93174058
0.57498354 3.0639534 -0.93174058
0.58411026 3.0639534 -0.93174058
0.59627926 3.0639534 -0.93174058
0.60540599 3.0639534 -0.93174058
0.44517857 3.0943098 -0.93456995
0.45131898 3.0943098 -0.93456995
0.46666998 3.0943098 -0.93456995
0.47588056 3.0943098 -0.93456995
0.49430174 3.0943098 -0.93456995
0.50351232 3.0943098 -0.93456995
0.51579309 3.0943098 -0.93456995
0.52500373 3.0943098 -0.93456995
0.44620857 3.1263382 -0.93455881
0.4555046 3.1263382 -0.93455887
0.4648006 3.1263382 -0.93455887
0.4740966 3.1274488 -0.93166596
0.48442551 3.1267083 -0.93359452
0.49268863 3.1263382 -0.93455887
0.44413006 3.1589658 -0.93454725
0.45664078 3.1589658 -0.93454725
0.50668359 3.1589658 -0.93454725
0.43569776 3.1933408 -0.9315877
0.44516945 3.1933408 -0.9315877
0.45148391 3.1933408 -0.9315877
0.50831407 3.1922092 -0.93453521
0.51462853 3.1922092 -0.93453521
0.52410018 3.1922092 -0.93453526
0.5335719 3.1933408 -0.9315877
0.4462285 3.2260859 -0.93452269
0.45579055 3.2260859 -0.93452269
0.46216524 3.2260859 -0.93452269
0.50360072 3.2260859 -0.93452269
0.45374396 3.2594614 -0.93751401
0.46661612 3.2594614 -0.93751401
0.47627026 3.2594614 -0.93751401
0.48592439 3.2594614 -0.93751401
0.49557853 3.2594614 -0.93751401
0.50523263 3.2594614 -0.93751401
0.51166874 3.2594614 -0.93751401
0.44730788 3.2617679 -0.93150544
0.45374396 3.2617679 -0.93150544
0.4633981 3.2617679 -0.93150544
0.47627026 3.2617679 -0.93150544
0.48592439 3.2617679 -0.93150544
0.49557853 3.2617679 -0.93150544
0.50523263 3.2617679 -0.93150544
0.51166874 3.2617679 -0.93150544
0.53304166 2.9739876 -0.92908114
0.54488701 2.9750488 -0.9263165
0.5557453 2.9746952 -0.92723805
0.56561643 2.9739876 -0.92908114
0.57450044 2.9739876 -0.92908114
0.58535868 2.9746952 -0.92723805
0.5168941 3.0048683 -0.92623281
0.54677236 3.0048683 -0.92623281
0.55573583 3.0048683 -0.92623281
0.56469935 3.0048683 -0.92623281
0.57366276 3.0048683 -0.92623281
0.58561409 3.0048683 -0.92623281
0.59457761 3.0048683 -0.92623281
0.50949931 3.0341446 -0.92896187
0.51552892 3.0341446 -0.92896187
0.52457327 3.0341446 -0.92896187
0.53964722 3.0341446 -0.92896187
0.54567677 3.0341446 -0.92896187
0.55472112 3.0341446 -0.92896187
0.56678033 3.0341446 -0.92896187
0.57582468 3.0341446 -0.92896187
0.58486903 3.0341446 -0.92896187
0.59692824 3.0341446 -0.92896187
0.60597259 3.0341446 -0.92896187
0.5263077 3.066134 -0.9260602
0.53543442 3.066134 -0.9260602
0.54456115 3.066134 -0.9260602
0.55470198 3.0668609 -0.92416674
0.56585681 3.066134 -0.9260602
0.57498354 3.066134 -0.9260602
0.58411026 3.066134 -0.9260602
0.59627926 3.066134 -0.9260602
0.60540599 3.066134 -0.9260602
0.46974015 3.0965102 -0.92883742
0.47588056 3.0965102 -0.92883742
0.49430174 3.0976105 -0.92597115
0.50351232 3.0976105 -0.92597115
0.51579309 3.0976105 -0.92597115
0.52500373 3.0976105 -0.92597115
0.53421426 3.0976105 -0.92597115
0.54649508 3.0976105 -0.92597115
0.55570567 3.0976105 -0.92597115
0.56593966 3.0979774 -0.92501575
0.57412684 3.0976105 -0.92597115
0.58333743 3.0976105 -0.92597115
0.59561825 3.0976105 -0.92597115
0.60482883 3.0976105 -0.92597115
0.51437932 3.1296697 -0.92588025
0.52677399 3.1296697 -0.92588025
0.53607005 3.1296697 -0.92588025
0.54536605 3.1296697 -0.92588025
0.55466205 3.1296697 -0.92588025
0.57635272 3.1296697 -0.92588025
0.59804344 3.1296697 -0.92588025
0.60424078 3.1296697 -0.92588025
0.53607005 3.1318905 -0.92009455
0.55466205 3.1318905 -0.92009455
0.56395805 3.1318905 -0.92009455
0.57635272 3.1318905 -0.92009455
0.58564878 3.1318905 -0.92009455
0.59494478 3.1318905 -0.92009455
0.60424078 3.1318905 -0.92009455
0.52857733 3.1612074 -0.92870736
0.53483272 3.1623282 -0.92578745
0.54525828 3.1627018 -0.92481405
0.55568391 3.1627018 -0.92481405
0.56610948 3.163449 -0.92286748
0.5754925 3.163449 -0.92286748
0.58487552 3.163449 -0.92286748
0.59738624 3.163449 -0.92286748
0.50831407 3.1956036 -0.92569256
0.51462853 3.1956036 -0.92569256
0.52410018 3.1956036 -0.92569256
0.5367291 3.1956036 -0.92569256
0.54620081 3.1956036 -0.92569256
0.55567253 3.1956036 -0.92569256
0.56514418 3.1956036 -0.92569256
0.57461584 3.1956036 -0.92569256
0.58408755 3.1956036 -0.92569256
0.59040201 3.1956036 -0.92569256
0.43666646 3.2283704 -0.92857134
0.44304115 3.2283704 -0.92857134
0.45579055 3.2283704 -0.92857134
0.51635015 3.2283704 -0.92857134
0.52591217 3.2283704 -0.92857134
0.55778563 3.2283704 -0.92857134
0.43347913 3.230655 -0.92262006
0.51635015 3.230655 -0.92262006
0.52591217 3.230655 -0.92262006
0.53547418 3.230655 -0.92262006
0.54503626 3.230655 -0.92262006
0.55778563 3.230655 -0.92262006
0.44730788 3.2640743 -0.92549682
0.45374396 3.2640743 -0.92549682
0.4633981 3.2640743 -0.92549682
0.47627026 3.2640743 -0.92549682
0.48592439 3.2640743 -0.92549682
0.49557853 3.2640743 -0.92549682
0.50523263 3.2640743 -0.92549682
0.51166874 3.2640743 -0.92549682
0.67594463 1.7276543 -0.91046393
0.67785436 1.7359509 -0.91900533
0.55570567 3.1009114 -0.91737229
0.56184608 3.1009114 -0.91737229
0.58333743 3.1009114 -0.91737229
0.58564878 3.1341114 -0.91430879
0.59425855 3.1656909 -0.91702759
0.52725744 3.1978667 -0.91979754
0.5367291 3.1978667 -0.91979754
0.54620081 3.1978667 -0.91979754
0.55882972 3.1978667 -0.91979754
0.56514418 3.1978667 -0.91979754
0.57461584 3.1978667 -0.91979754
0.58408755 3.1978667 -0.91979754
0.59355927 3.1978667 -0.91979754
0.54620081 3.2001295 -0.91390252
0.55882972 3.2001295 -0.91390252
0.56514418 3.2001295 -0.91390252
0.57461584 3.2001295 -0.91390252
0.58408755 3.2001295 -0.91390252
0.59355927 3.2001295 -0.91390252
0.43347913 3.2340817 -0.91369313
0.44304115 3.235224 -0.91071749
0.51635015 3.2340817 -0.91369319
0.52591217 3.2340817 -0.91369313
0.53547418 3.2340817 -0.91369313
0.54503626 3.2340817 -0.91369313
0.55459827 3.2340817 -0.91369319
0.56416035 3.2340817 -0.91369313
0.57372236 3.2340817 -0.91369313
0.58647174 3.2329395 -0.91666877
0.59603381 3.2329395 -0.91666877
0.45374396 3.267534 -0.91648388
0.4633981 3.2675338 -0.91648388
0.47734293 3.2671497 -0.9174853
0.48592439 3.267534 -0.91648388
0.49557853 3.2675338 -0.91648388
0.50523263 3.267534 -0.91648388
0.51166874 3.267534 -0.91648388
0.67650467 1.7190099 -0.9031598
0.67409778 1.728978 -0.90701562
0.57777309 3.2046554 -0.90211236
0.58408755 3.2046554 -0.90211236
0.59461164 3.2039011 -0.90407735
0.43347913 3.2375083 -0.9047662
0.44304115 3.2375083 -0.9047662
0.46853992 3.2375083 -0.9047662
0.51635015 3.2375083 -0.9047662
0.52591217 3.2375083 -0.9047662
0.53547418 3.2375083 -0.9047662
0.54503626 3.2375083 -0.9047662
0.55459827 3.2375083 -0.9047662
0.56416035 3.2375083 -0.9047662
0.57372236 3.2375083 -0.9047662
0.58328438 3.2375083 -0.9047662
0.59603381 3.2375083 -0.9047662
0.4344357 3.2721469 -0.90446675
0.44516253 3.2725315 -0.90346527
0.45374396 3.2721469 -0.90446675
0.4633981 3.2721472 -0.90446669
0.47734293 3.2725315 -0.90346527
0.48592439 3.2721469 -0.90446675
0.49557853 3.2721472 -0.90446669
0.50523263 3.2721469 -0.90446675
0.51166874 3.2721469 -0.90446675
0.67584074 1.7119874 -0.89195633
0.67221916 1.7217525 -0.89601529
0.58408755 3.2080498 -0.89326978
0.59671646 3.2080498 -0.89326978
0.43666646 3.2397928 -0.89881492
0.46853992 3.2397928 -0.89881492
0.51635015 3.2397928 -0.89881492
0.52591217 3.2397928 -0.89881492
0.53547418 3.2397928 -0.89881492
0.54503626 3.2397928 -0.89881492
0.55459827 3.2397928 -0.89881492
0.56416035 3.2397928 -0.89881492
0.57372236 3.2397928 -0.89881492
0.58328438 3.2397928 -0.89881492
0.59603381 3.2397928 -0.89881492
0.51635015 3.2420774 -0.89286363
0.52591217 3.2420774 -0.89286363
0.53547418 3.2420774 -0.89286363
0.54503626 3.2420774 -0.89286363
0.55459827 3.2420774 -0.89286363
0.56416035 3.2420774 -0.89286363
0.57372236 3.2420774 -0.89286363
0.58647174 3.2420774 -0.89286363
0.59603381 3.2420774 -0.89286363
0.4344357 3.2756069 -0.89545381
0.44408983 3.2756069 -0.89545381
0.45374396 3.2756069 -0.89545381
0.4633981 3.2756069 -0.89545381
0.4730522 3.2756069 -0.89545381
0.49557853 3.2756069 -0.89545381
0.67584074 1.7149329 -0.88428265
0.43666646 3.2466464 -0.88096106
0.44304115 3.2466464 -0.88096106
0.46535259 3.2466464 -0.88096106
0.47491461 3.2455041 -0.8839367
0.48341426 3.2458849 -0.88294482
0.50360072 3.2455041 -0.8839367
0.52591217 3.2443619 -0.88691235
0.53866154 3.2455041 -0.8839367
0.55778563 3.2455041 -0.8839367
0.56416035 3.2455041 -0.8839367
0.57372236 3.2455044 -0.88393664
0.58328438 3.2455041 -0.8839367
0.59603381 3.2443619 -0.88691235
0.4344357 3.2779133 -0.88944519
0.45374396 3.2779133 -0.88944519
0.46018004 3.2779133 -0.88944519
0.49879655 3.2779133 -0.88944519
0.45374396 3.2802198 -0.88343662
0.67760605 1.7072109 -0.87522167
0.50831407 3.2148385 -0.8755846
0.51462853 3.2148385 -0.8755846
0.52515262 3.2152157 -0.87460208
0.53988636 3.2148385 -0.8755846
0.54620081 3.2148385 -0.8755846
0.58408755 3.2148385 -0.8755846
0.59461164 3.2152157 -0.87460208
0.43347913 3.2489309 -0.87500978
0.44304115 3.2489309 -0.87500978
0.45579055 3.2489309 -0.87500978
0.46535259 3.2489309 -0.87500978
0.47491461 3.2489309 -0.87500978
0.48447669 3.2489309 -0.87500978
0.4940387 3.2489309 -0.87500978
0.50360072 3.2489309 -0.87500978
0.54503626 3.2489309 -0.87500978
0.55778563 3.2489309 -0.87500978
0.56416035 3.2489309 -0.87500978
0.57372236 3.2489309 -0.87500978
0.58647174 3.2489309 -0.87500978
0.59603381 3.2489309 -0.87500978
0.4344357 3.2836795 -0.87442374
0.44516253 3.2832949 -0.87542516
0.45374396 3.2836795 -0.87442374
0.50831407 3.2182326 -0.86674201
0.51462853 3.2182326 -0.86674201
0.52410018 3.2182326 -0.86674201
0.5335719 3.2182326 -0.86674201
0.54620081 3.2182326 -0.86674201
0.50831407 3.2204957 -0.860847
0.51462853 3.2204957 -0.860847
0.52410018 3.2204957 -0.860847
0.5335719 3.2204957 -0.860847
0.43666646 3.2534997 -0.8631072
0.45579055 3.2523575 -0.86608285
0.46535259 3.2523575 -0.86608291
0.47491461 3.2523575 -0.86608285
0.48447666 3.2523575 -0.86608291
0.4940387 3.2523575 -0.86608285
0.50360072 3.2523575 -0.86608285
0.54503626 3.2512152 -0.86905849
0.55459827 3.2523575 -0.86608291
0.56416035 3.2523575 -0.86608285
0.57372236 3.2523575 -0.86608291
0.58647174 3.2523575 -0.86608291
0.59603381 3.2523575 -0.86608285
0.4344357 3.2871392 -0.8654108
0.44408983 3.2871392 -0.8654108
0.45374396 3.2871392 -0.8654108
0.50831407 3.2227585 -0.85495198
0.51462853 3.2227585 -0.85495198
0.52410018 3.2227585 -0.85495198
0.5367291 3.2227585 -0.85495198
0.43347913 3.2580688 -0.85120463
0.4462285 3.2580688 -0.85120463
0.45579055 3.2569265 -0.85418028
0.46535259 3.2569265 -0.85418028
0.47491461 3.2569265 -0.85418028
0.48447666 3.2569265 -0.85418028
0.4940387 3.2569265 -0.85418028
0.50360072 3.2569265 -0.85418022
0.51635015 3.2580688 -0.85120463
0.52591217 3.2569265 -0.85418028
0.53547418 3.2580688 -0.85120463
0.54503626 3.2569265 -0.85418028
0.55141091 3.2557843 -0.85715592
0.57372236 3.2557843 -0.85715592
0.58647174 3.2569265 -0.85418028
0.59603381 3.2569265 -0.85418028
0.51166874 3.2917521 -0.85339355
0.50831407 3.2250214 -0.84905684
0.51462853 3.2250214 -0.84905684
0.52725744 3.2250214 -0.84905684
0.5335719 3.2250214 -0.84905684
0.54620081 3.2272844 -0.84316182
0.55567253 3.2261529 -0.84610933
0.56514418 3.2272844 -0.84316182
0.57145864 3.2272844 -0.84316182
0.43347913 3.2603533 -0.84525335
0.4462285 3.2603533 -0.84525335
0.45579055 3.2603533 -0.84525335
0.46535259 3.2603533 -0.84525335
0.47491461 3.2603533 -0.84525335
0.48447669 3.2603533 -0.84525335
0.4940387 3.2603533 -0.84525335
0.50041342 3.2603533 -0.84525335
0.51635015 3.2603533 -0.84525335
0.52591217 3.2603533 -0.84525335
0.53547418 3.2603533 -0.84525335
0.54503626 3.2603533 -0.84525335
0.51166874 3.2952118 -0.84438074
0.54620081 3.2295473 -0.83726674
0.55567253 3.2295473 -0.83726674
0.56514418 3.2295473 -0.83726674
0.57461584 3.2295473 -0.83726674
0.58408755 3.2295473 -0.83726674
0.59355927 3.2295473 -0.83726674
0.52410018 3.2318101 -0.83137167
0.5335719 3.2318101 -0.83137167
0.54620081 3.2318101 -0.83137167
0.55567253 3.2318101 -0.83137167
0.56514418 3.2318101 -0.83137167
0.57461584 3.2318101 -0.83137167
0.58408755 3.2318101 -0.83137167
0.59355927 3.2318101 -0.83137167
0.43347913 3.2637801 -0.83632642
0.4462285 3.2637799 -0.83632636
0.45579055 3.2637801 -0.83632642
0.46535259 3.2637801 -0.83632642
0.47491461 3.2637801 -0.83632642
0.48447669 3.2637801 -0.83632642
0.4940387 3.2637801 -0.83632642
0.50041342 3.2637801 -0.83632642
0.51635015 3.2637801 -0.83632642
0.54503626 3.2637801 -0.83632642
0.51166874 3.2986717 -0.8353678
0.61664528 2.7948706 -0.82108402
0.52410018 3.2340729 -0.82547665
0.5335719 3.2340729 -0.82547665
0.54620081 3.2340729 -0.82547665
0.55567253 3.2340729 -0.82547665
0.56514418 3.2340729 -0.82547665
0.57461584 3.2340729 -0.82547665
0.58408755 3.2340729 -0.82547665
0.59355927 3.2340729 -0.82547665
0.43347913 3.2683489 -0.82442391
0.4462285 3.2683489 -0.82442391
0.45579055 3.2683489 -0.82442385
0.46535259 3.2683489 -0.82442391
0.47491461 3.2683489 -0.82442385
0.48447669 3.2683489 -0.82442391
0.4940387 3.2672067 -0.82739949
0.50360072 3.2683489 -0.82442385
0.61664528 2.7968526 -0.81592089
0.48937067 3.2385988 -0.81368655
0.49568513 3.2385988 -0.81368655
0.50831407 3.2374673 -0.81663406
0.51462853 3.2374673 -0.81663406
0.52410018 3.2374673 -0.81663412
0.5367291 3.2374675 -0.81663412
0.54620081 3.2374673 -0.81663406
0.55567253 3.2374673 -0.81663412
0.56514418 3.236336 -0.81958163
0.57566828 3.2370903 -0.81761664
0.58408755 3.2374673 -0.81663406
0.59355927 3.2374673 -0.81663406
0.43347913 3.2717757 -0.81549692
0.4462285 3.2717757 -0.81549692
0.45579055 3.2717757 -0.81549692
0.46535259 3.2717757 -0.81549692
0.47491461 3.2717757 -0.81549692
0.50678807 3.2717757 -0.81549692
0.4344357 3.3067443 -0.81433773
0.55985415 3.2082834 -0.80606997
0.56610948 3.2082834 -0.80606997
0.55672646 3.2105253 -0.80023015
0.56610948 3.2105253 -0.80023015
0.47674176 3.2408617 -0.80779147
0.48621345 3.2419932 -0.80484402
0.49568513 3.2419932 -0.80484396
0.50831407 3.2419932 -0.80484396
0.51462853 3.2408617 -0.80779147
0.52515262 3.241616 -0.80582649
0.5367291 3.2419932 -0.80484402
0.54620081 3.2419932 -0.80484396
0.55251527 3.2419932 -0.80484396
0.57777309 3.2419932 -0.80484396
0.58408755 3.2419932 -0.80484396
0.59355927 3.2419932 -0.80484396
0.43666646 3.2752025 -0.80656999
0.4462285 3.2752023 -0.80656999
0.45579055 3.2752025 -0.80656999
0.46535259 3.2752023 -0.80656999
0.47491461 3.2752025 -0.80656999
0.48128933 3.2740602 -0.80954564
0.50678807 3.2740602 -0.80954564
0.4344357 3.310204 -0.80532479
0.50981128 3.2127669 -0.7943902
0.51606667 3.2127669 -0.7943902
0.55672646 3.2127669 -0.7943902
0.56610948 3.2127669 -0.7943902
0.46411282 3.2476504 -0.7901063
0.47463694 3.246896 -0.79207134
0.48305622 3.2465191 -0.79305387
0.49568513 3.2465191 -0.79305387
0.50199962 3.2465191 -0.79305387
0.53988636 3.2465191 -0.79305387
0.54620081 3.2453876 -0.79600137
0.43666646 3.2786291 -0.79764307
0.4462285 3.2786291 -0.79764307
0.45579055 3.2786291 -0.79764307
0.46216524 3.2786291 -0.79764307
0.43347913 3.2809136 -0.79169178
0.4462285 3.2809136 -0.79169178
0.45579055 3.2809136 -0.79169178
0.46216524 3.2809136 -0.79169178
0.48478988 3.2161295 -0.7856304
0.50668359 3.2161298 -0.78563046
0.51606667 3.2161295 -0.7856304
0.52544963 3.2161298 -0.78563046
0.54525828 3.2165031 -0.78465706
0.55672646 3.2161295 -0.7856304
0.56610948 3.2161295 -0.7856304
0.5754925 3.2161298 -0.78563046
0.58487552 3.2161295 -0.7856304
0.59425855 3.2161298 -0.78563046
0.46411282 3.2499132 -0.78421128
0.47358453 3.2499132 -0.78421128
0.48621345 3.2499132 -0.78421128
0.49568513 3.2499132 -0.78421128
0.50199962 3.2499132 -0.78421128
0.43347913 3.2831981 -0.78574049
0.4462285 3.2831981 -0.78574049
0.45579055 3.2831981 -0.78574049
0.46216524 3.2831981 -0.78574049
0.50668359 3.2194922 -0.77687061
0.51606667 3.2194922 -0.77687061
0.522322 3.2194922 -0.77687061
0.53483272 3.2194922 -0.77687061
0.54421574 3.2194922 -0.77687061
0.55672646 3.2194922 -0.77687061
0.56610948 3.2194922 -0.77687061
0.5754925 3.2194922 -0.77687061
0.58487552 3.2194922 -0.77687061
0.59425855 3.2194922 -0.77687061
0.50668359 3.2217338 -0.77103078
0.522322 3.2217338 -0.77103078
0.53483272 3.2217338 -0.77103078
0.54421574 3.2217338 -0.77103078
0.55672646 3.2217338 -0.77103078
0.56610948 3.2217338 -0.77103078
0.5786202 3.2217338 -0.77103078
0.58487552 3.2217338 -0.77103078
0.59425855 3.2217338 -0.77103078
0.45148391 3.2544391 -0.77242112
0.46411282 3.2533078 -0.77536869
0.47463694 3.2529306 -0.77635121
0.48621345 3.2533078 -0.77536863
0.49568513 3.2533078 -0.77536869
0.50199962 3.2533078 -0.77536869
0.57777309 3.2521763 -0.7783162
0.43347913 3.2854826 -0.77978921
0.44516602 3.2862442 -0.77780551
0.46216524 3.2866249 -0.77681357
0.47491461 3.2866249 -0.77681357
0.50041342 3.2877672 -0.77383792
0.52367532 3.1896348 -0.76966596
0.51128066 3.1918557 -0.76388019
0.52367532 3.1918557 -0.76388019
0.50668359 3.2239757 -0.76519084
0.54421574 3.2239757 -0.76519084
0.55672646 3.2239757 -0.76519084
0.56610948 3.2239757 -0.76519084
0.5754925 3.2239757 -0.76519084
0.58487552 3.2239757 -0.76519084
0.44516945 3.2567019 -0.7665261
0.45464113 3.2578335 -0.76357853
0.46411282 3.2567019 -0.7665261
0.47674176 3.2567019 -0.7665261
0.48516104 3.2574565 -0.76456112
0.49568513 3.258965 -0.76063102
0.50199962 3.2578335 -0.76357853
0.43666646 3.2900515 -0.76788664
0.44516602 3.2908127 -0.76590282
0.45579055 3.2900515 -0.76788664
0.46853992 3.2911937 -0.764911
0.47491461 3.2911937 -0.764911
0.48341426 3.2915745 -0.76391912
0.4940387 3.2911937 -0.764911
0.50041342 3.292336 -0.76193535
0.51541221 3.1948168 -0.75616592
0.5257411 3.1948168 -0.75616592
0.53607005 3.1962974 -0.75230879
0.58564878 3.1951871 -0.75520164
0.59597766 3.1955574 -0.75423735
0.50668359 3.2273378 -0.75643098
0.51606667 3.2262173 -0.75935102
0.53483272 3.2262173 -0.75935102
0.54734343 3.2262173 -0.75935102
0.55672646 3.2262173 -0.75935102
0.56610948 3.2262173 -0.75935102
0.57444996 3.2269642 -0.75740433
0.58487552 3.2262173 -0.75935102
0.44516945 3.2612278 -0.75473595
0.45464113 3.2612278 -0.75473595
0.50199962 3.2612278 -0.75473595
0.45579055 3.2946205 -0.75598407
0.46853992 3.2946205 -0.75598407
0.47491461 3.2957628 -0.75300837
0.48128933 3.2946205 -0.75598407
0.51437932 3.1985185 -0.74652302
0.52677399 3.1985185 -0.74652302
0.53607005 3.1985185 -0.74652302
0.54536605 3.1985185 -0.74652302
0.55466205 3.1985185 -0.74652302
0.56085938 3.1985185 -0.74652302
0.57635272 3.1985185 -0.74652302
0.58564878 3.1985185 -0.74652302
0.59494478 3.1985185 -0.74652302
0.51747799 3.2007394 -0.74073732
0.52677399 3.2007394 -0.74073732
0.53607005 3.2007394 -0.74073732
0.54536605 3.2007394 -0.74073732
0.55466205 3.2007394 -0.74073732
0.56395805 3.2007394 -0.74073732
0.57635272 3.2007394 -0.74073732
0.58564878 3.2007394 -0.74073732
0.59494478 3.2007394 -0.74073732
0.50668359 3.2318215 -0.74475121
0.51606667 3.2307007 -0.74767125
0.43569773 3.2646222 -0.74589336
0.44516945 3.2646222 -0.74589336
0.45569357 3.2649994 -0.7449109
0.46411282 3.2657537 -0.74294585
0.47674176 3.2657537 -0.74294585
0.48621345 3.2646222 -0.74589336
0.49568513 3.2646222 -0.74589336
0.50199962 3.2646222 -0.74589336
0.43347913 3.2991896 -0.74408144
0.4462285 3.2991896 -0.74408144
0.45579055 3.2991896 -0.74408144
0.46853992 3.2991896 -0.74408144
0.47491461 3.2991896 -0.74408144
0.51437932 3.2029603 -0.73495162
0.52677399 3.2029603 -0.73495162
0.56705672 3.2029603 -0.73495162
0.57635272 3.2029603 -0.73495162
0.58564878 3.2029603 -0.73495162
0.59494478 3.2029603 -0.73495162
0.50668359 3.2351842 -0.73599148
0.51606667 3.2374258 -0.73015159
0.52544963 3.2374258 -0.73015159
0.53483272 3.2374258 -0.73015159
0.54421574 3.2374258 -0.73015159
0.56610948 3.2374258 -0.73015159
0.5754925 3.236305 -0.73307157
0.58487552 3.236305 -0.73307157
0.45779836 3.2680166 -0.73705077
0.47674176 3.2680166 -0.73705077
0.48937067 3.2680166 -0.73705077
0.49568513 3.2680166 -0.73705077
0.50515687 3.2680166 -0.73705077
0.51462853 3.2680166 -0.73705077
0.45779836 3.2702794 -0.73115575
0.46411282 3.2702794 -0.73115575
0.50831407 3.2702794 -0.73115575
0.51462853 3.2702794 -0.73115575
0.52410018 3.2702794 -0.73115575
0.57777309 3.2702794 -0.73115575
0.58408755 3.2702794 -0.73115575
0.43241668 3.3022356 -0.73614639
0.4462285 3.3014741 -0.73813015
0.45579055 3.3026164 -0.73515451
0.46535259 3.3037586 -0.73217881
0.47491461 3.3026164 -0.73515451
0.4344357 3.3378818 -0.73322153
0.44408986 3.3367286 -0.73622584
0.45374396 3.3367286 -0.73622584
0.46018004 3.3378818 -0.73322153
0.44404617 3.4466825 -0.73028499
0.45398751 3.4454949 -0.73337865
0.46392882 3.4466825 -0.73028499
0.47387016 3.4466825 -0.73028499
0.4838115 3.4466825 -0.73028499
0.49375284 3.4466825 -0.73028499
0.53421426 3.1735284 -0.72819811
0.54649508 3.1735284 -0.72819811
0.55570567 3.1735284 -0.72819811
0.4740966 3.2074022 -0.72338021
0.51437932 3.2051811 -0.72916591
0.52677399 3.2051811 -0.72916591
0.53607005 3.2051811 -0.72916591
0.54639894 3.2059214 -0.7272374
0.55466205 3.2062917 -0.72627306
0.56085938 3.2051811 -0.72916591
0.58564878 3.2051811 -0.72916591
0.47540683 3.2396677 -0.72431171
0.49417293 3.2396677 -0.72431171
0.52857733 3.2396677 -0.72431171
0.53483272 3.2396677 -0.72431171
0.54421574 3.2396677 -0.72431171
0.55672646 3.2396677 -0.72431171
0.56610948 3.2396677 -0.72431171
0.47674176 3.2725422 -0.72526073
0.48305622 3.2725422 -0.72526073
0.52410018 3.2725422 -0.72526073
0.53988636 3.2725422 -0.72526073
0.57461584 3.2725422 -0.72526073
0.58408755 3.2725422 -0.72526073
0.46535259 3.3060429 -0.72622758
0.47491461 3.3060429 -0.72622758
0.48341426 3.3075659 -0.72226006
0.4940387 3.3083274 -0.7202763
0.50041342 3.3083274 -0.7202763
0.57690972 3.3083274 -0.7202763
0.58647174 3.3083274 -0.7202763
0.4344357 3.3413415 -0.72420865
0.44408983 3.3401883 -0.72721297
0.45374396 3.3401883 -0.72721297
0.4633981 3.3401883 -0.72721297
0.47627026 3.3413415 -0.72420865
0.48592439 3.342495 -0.72120434
0.44515878 3.3749969 -0.72821724
0.45490676 3.3749969 -0.72821724
0.46465477 3.3749969 -0.72821724
0.47115347 3.3749969 -0.72821724
0.49389881 3.3773258 -0.72215015
0.50364679 3.3773258 -0.72215015
0.5263921 3.3773258 -0.72215015
0.53614014 3.3773258 -0.72215015
0.42656118 3.4128399 -0.72311449
0.43640488 3.4104881 -0.72924113
0.44296739 3.4104881 -0.72924113
0.45609233 3.4104881 -0.72924113
0.46593606 3.4104881 -0.72924113
0.47577977 3.4104881 -0.72924113
0.48562348 3.4104881 -0.72924113
0.49546722 3.4128399 -0.72311449
0.50531095 3.4128399 -0.72311449
0.51515466 3.411664 -0.72617781
0.52171713 3.411664 -0.72617781
0.44404617 3.4490576 -0.72409767
0.45398751 3.4490576 -0.72409767
0.46392882 3.4490576 -0.72409767
0.47387016 3.4490576 -0.72409767
0.4838115 3.4490576 -0.72409767
0.49375284 3.4490576 -0.72409767
0.50369418 3.4490576 -0.72409767
0.51363552 3.4490576 -0.72409767
0.5235768 3.4490576 -0.72409767
0.41837069 3.4859996 -0.7251004
0.42506465 3.4859996 -0.7251004
0.47526914 3.4859996 -0.7251004
0.48531002 3.4859996 -0.7251004
0.42598397 3.5236888 -0.72612321
0.48029396 3.2096231 -0.7175945
0.48478988 3.2430301 -0.71555191
0.49417293 3.2430303 -0.71555191
