# .PCD v0.7 - Point Cloud Data file format
VERSION 0.7
FIELDS x y z
SIZE 4 4 4
TYPE F F F
COUNT 1 1 1
WIDTH 1424
HEIGHT 1
VIEWPOINT 0 0 0 1 0 0 0
POINTS 1424
DATA ascii
0.035398465 3.3448014 -0.71519578
0.045052592 3.3448014 -0.71519578
0.054706719 3.3448014 -0.71519578
0.064360842 3.3448014 -0.71519578
0.074014969 3.3448014 -0.71519578
0.083669096 3.3448014 -0.71519578
0.093323223 3.3448014 -0.71519578
0.11906756 3.3448014 -0.71519578
0.1448119 3.3448014 -0.71519578
0.15446603 3.3448014 -0.71519578
0.16412015 3.3448014 -0.71519578
0.17377429 3.3448014 -0.71519578
0.18664646 3.3448014 -0.71519578
0.19630058 3.3448014 -0.71519578
0.2059547 3.3448014 -0.71519578
0.21560884 3.3448014 -0.71519578
0.22526297 3.3448014 -0.71519578
0.23491709 3.3448014 -0.71519578
0.24457121 3.3448014 -0.71519578
0.26387948 3.3448014 -0.71519578
0.27675164 3.3448014 -0.71519578
0.28640577 3.3448014 -0.71519578
0.29605991 3.3448014 -0.71519578
0.30571401 3.3448014 -0.71519578
0.31215009 3.3448014 -0.71519578
0.32502228 3.3448014 -0.71519578
0.33145836 3.3448014 -0.71519578
0.38938311 3.3448014 -0.71519578
0.39581919 3.3448014 -0.71519578
0.40547335 3.3448014 -0.71519578
-0.57513213 3.3796549 -0.71608317
-0.56538415 3.3796549 -0.71608317
-0.51014549 3.3796549 -0.71608317
-0.50364679 3.3796549 -0.71608317
-0.49389881 3.3796549 -0.71608317
-0.4841508 3.3796549 -0.71608317
-0.47440279 3.3796549 -0.71608317
-0.46465477 3.3796549 -0.71608317
-0.45490676 3.3796549 -0.71608317
-0.4354108 3.3796549 -0.71608317
-0.42566279 3.3796549 -0.71608317
-0.41591477 3.3796549 -0.71608317
-0.40616676 3.3796549 -0.71608317
-0.39641875 3.3796549 -0.71608317
-0.38342142 3.3796549 -0.71608317
-0.37367344 3.3796549 -0.71608317
-0.36067608 3.3796549 -0.71608317
-0.27619341 3.3796549 -0.71608317
-0.2664454 3.3796549 -0.71608317
-0.25344807 3.3796549 -0.71608317
-0.24370006 3.3796549 -0.71608317
-0.23395206 3.3796549 -0.71608317
-0.22420406 3.3796549 -0.71608317
-0.21445605 3.3796549 -0.71608317
-0.20470805 3.3796549 -0.71608317
-0.19496006 3.3796549 -0.71608317
-0.18521205 3.3796549 -0.71608317
-0.17871338 3.3796549 -0.71608317
-0.16571604 3.3796549 -0.71608317
-0.15596804 3.3796549 -0.71608317
-0.14622004 3.3796549 -0.71608317
-0.13647203 3.3796549 -0.71608317
-0.10722803 3.3796549 -0.71608317
-0.084482685 3.3796549 -0.71608317
-0.074734688 3.3796549 -0.71608317
-0.064986683 3.3796549 -0.71608317
-0.055238679 3.3796549 -0.71608317
-0.048740011 3.3796549 -0.71608317
-0.025994673 3.3796549 -0.71608317
-0.016246671 3.3796549 -0.71608317
-0.0032493342 3.3796549 -0.71608317
0.0032493342 3.3796549 -0.71608317
0.029244008 3.3796549 -0.71608317
0.035742674 3.3796549 -0.71608317
0.042241342 3.3796549 -0.71608317
0.068236016 3.3796549 -0.71608317
0.087732024 3.3796549 -0.71608317
0.094230689 3.3796549 -0.71608317
0.10397869 3.3796549 -0.71608317
0.1137267 3.3796549 -0.71608317
0.1234747 3.3796549 -0.71608317
0.13647203 3.3796549 -0.71608317
0.14622004 3.3796549 -0.71608317
0.15596804 3.3796549 -0.71608317
0.17546405 3.3796549 -0.71608317
0.18521205 3.3796549 -0.71608317
0.19496006 3.3796549 -0.71608317
0.20470805 3.3796549 -0.71608317
0.21445605 3.3796549 -0.71608317
0.27619341 3.3796549 -0.71608317
0.28269207 3.3796549 -0.71608317
0.2956894 3.3796549 -0.71608317
0.30543739 3.3796549 -0.71608317
0.31518543 3.3796549 -0.71608317
0.32493341 3.3796549 -0.71608317
0.33468142 3.3796549 -0.71608317
0.34442943 3.3796549 -0.71608317
0.36067608 3.3796549 -0.71608317
0.38667077 3.3796549 -0.71608317
0.39641875 3.3796549 -0.71608317
0.40616676 3.3796549 -0.71608317
-0.57513213 3.3819838 -0.71001613
-0.5686335 3.3819838 -0.71001613
-0.51014549 3.3819838 -0.71001613
-0.50364679 3.3819838 -0.71001613
-0.49389881 3.3819838 -0.71001613
-0.4841508 3.3819838 -0.71001613
-0.47440279 3.3819838 -0.71001613
-0.46465477 3.3819838 -0.71001613
-0.45490676 3.3819838 -0.71001613
-0.44515878 3.3819838 -0.71001613
-0.4354108 3.3819838 -0.71001613
-0.42566279 3.3819838 -0.71001613
-0.41591477 3.3819838 -0.71001613
-0.40616676 3.3819838 -0.71001613
-0.39641875 3.3819838 -0.71001613
-0.38667077 3.3819838 -0.71001613
-0.21445605 3.3819838 -0.71001613
-0.20470805 3.3819838 -0.71001613
-0.19496006 3.3819838 -0.71001613
-0.18521205 3.3819838 -0.71001613
-0.17546405 3.3819838 -0.71001613
-0.16571604 3.3819838 -0.71001613
-0.15596804 3.3819838 -0.71001613
-0.14622004 3.3819838 -0.71001613
0.0097480025 3.3819838 -0.71001613
0.016246671 3.3819838 -0.71001613
0.025994673 3.3819838 -0.71001613
0.035742674 3.3819838 -0.71001613
0.045490675 3.3819838 -0.71001613
0.055238679 3.3819838 -0.71001613
0.064986683 3.3819838 -0.71001613
0.074734688 3.3819838 -0.71001613
0.081233352 3.3819838 -0.71001613
0.15921737 3.3819838 -0.71001613
0.16571604 3.3819838 -0.71001613
0.19171071 3.3819838 -0.71001613
0.21120672 3.3819838 -0.71001613
0.22420406 3.3819838 -0.71001613
0.23070273 3.3819838 -0.71001613
0.24370006 3.3819838 -0.71001613
0.25344807 3.3819838 -0.71001613
0.2664454 3.3819838 -0.71001613
0.2956894 3.3819838 -0.71001613
0.30543739 3.3819838 -0.71001613
0.31518543 3.3819838 -0.71001613
0.33468142 3.3819838 -0.71001613
-0.56327951 3.4159758 -0.71494561
-0.55452955 3.4163678 -0.71392453
-0.54468578 3.4163678 -0.71392453
-0.53484207 3.4163678 -0.71392453
-0.52499837 3.4163678 -0.71392453
-0.45609233 3.4175436 -0.71086127
-0.43640488 3.4175436 -0.71086127
-0.4134362 3.4175436 -0.71086127
-0.4035925 3.4175436 -0.71086127
-0.39374876 3.4175436 -0.71086127
-0.38390505 3.4163678 -0.71392453
-0.37406135 3.4163678 -0.71392453
-0.36421761 3.4163678 -0.71392453
-0.25593671 3.4151919 -0.71698785
-0.24609299 3.4151919 -0.71698785
-0.23624927 3.4151919 -0.71698785
-0.22640555 3.4151919 -0.71698785
-0.21656182 3.4175436 -0.71086127
-0.20015563 3.4175436 -0.71086127
-0.16406199 3.4175436 -0.71086127
-0.14437455 3.4163678 -0.71392453
-0.13453083 3.4151919 -0.71698785
-0.10828091 3.4151919 -0.71698785
-0.075468518 3.4151919 -0.71698785
-0.065624796 3.4151919 -0.71698785
-0.022968678 3.4151919 -0.71698785
-0.016406199 3.4151919 -0.71698785
-0.0065624798 3.4151919 -0.71698785
0.0065624798 3.4163678 -0.71392453
0.016406199 3.4175436 -0.71086127
0.026249919 3.4175436 -0.71086127
0.036093637 3.4175436 -0.71086127
0.045937356 3.4175436 -0.71086127
0.055781078 3.4175436 -0.71086127
0.065624796 3.4175436 -0.71086127
0.085312232 3.4163678 -0.71392453
0.095155954 3.4151919 -0.71698785
0.10171843 3.4151919 -0.71698785
0.12468711 3.4151919 -0.71698785
0.13453083 3.4151919 -0.71698785
0.14437455 3.4151919 -0.71698785
0.15421827 3.4163678 -0.71392453
0.16406199 3.4175436 -0.71086127
0.17390572 3.4163678 -0.71392453
0.18374944 3.4163678 -0.71392459
0.19359314 3.4175436 -0.71086127
0.20343687 3.4163678 -0.71392459
0.21656182 3.4163678 -0.71392453
0.22640555 3.4175436 -0.71086127
0.24609299 3.4175436 -0.71086127
0.25921795 3.4175436 -0.71086127
0.26578042 3.4175436 -0.71086127
0.27562416 3.4163678 -0.71392453
0.28546786 3.4151919 -0.71698785
0.29531157 3.4163678 -0.71392453
0.30515531 3.4175436 -0.71086127
0.31171778 3.4175436 -0.71086127
0.32484275 3.4163678 -0.71392453
0.33359274 3.4167597 -0.71290344
0.34453017 3.4163678 -0.71392453
0.35328016 3.4159758 -0.71494561
0.36421761 3.4163678 -0.71392453
0.37406135 3.4151919 -0.71698785
0.38390505 3.4151919 -0.71698785
0.39703003 3.4151919 -0.71698785
0.4035925 3.4151919 -0.71698785
-0.54345948 3.4538078 -0.71172291
-0.52689058 3.4538078 -0.71172291
-0.46061504 3.4538078 -0.71172291
-0.45398751 3.4538078 -0.71172291
-0.44404617 3.4538078 -0.71172291
-0.43410483 3.4538078 -0.71172291
-0.42416349 3.4538078 -0.71172291
-0.38108438 3.4538078 -0.71172291
-0.37445685 3.4538078 -0.71172291
-0.36341092 3.4530163 -0.71378535
-0.35457417 3.4526203 -0.71481657
-0.34463283 3.4526205 -0.71481657
-0.33469152 3.4514327 -0.71791029
-0.32806396 3.4514327 -0.71791029
-0.30486751 3.4514327 -0.71791029
-0.2949262 3.4514327 -0.71791029
-0.28498486 3.4514327 -0.71791029
-0.27504352 3.4514327 -0.71791029
-0.2617884 3.4514327 -0.71791029
-0.25516087 3.4526203 -0.71481657
-0.24632412 3.4522245 -0.71584779
-0.23527819 3.4526203 -0.71481657
-0.22865063 3.4526203 -0.71481657
-0.20876797 3.4538078 -0.71172291
-0.16900264 3.4538078 -0.71172291
-0.14249243 3.4514327 -0.71791029
-0.13586487 3.4514327 -0.71791029
-0.12923731 3.4514327 -0.71791029
-0.1159822 3.4514327 -0.71791029
-0.10935465 3.4514327 -0.71791029
-0.02651022 3.4514327 -0.71791029
-0.016568886 3.4514327 -0.71791029
-0.0066275545 3.4526205 -0.71481657
0.0066275545 3.4526203 -0.71481657
0.016568886 3.4538078 -0.71172291
0.029823996 3.4538078 -0.71172291
0.036451552 3.4538078 -0.71172291
0.043079104 3.4538078 -0.71172291
0.069589324 3.4538078 -0.71172291
0.076216877 3.4526203 -0.71481657
0.087262809 3.4530163 -0.71378535
0.096099541 3.4526203 -0.71481657
0.10604088 3.4526203 -0.71481657
0.1159822 3.4514327 -0.71791029
0.12592353 3.4526203 -0.71481657
0.13586487 3.4526203 -0.71481657
0.14580619 3.4526203 -0.71481657
0.15574753 3.4538078 -0.71172291
0.16237509 3.4538078 -0.71172291
0.18557152 3.4538078 -0.71172291
0.19551286 3.4538078 -0.71172291
0.2054542 3.4538078 -0.71172291
0.21539553 3.4538078 -0.71172291
0.22423226 3.4530163 -0.71378535
0.23527819 3.4538078 -0.71172291
0.24190575 3.4538078 -0.71172291
0.25516087 3.4538078 -0.71172291
0.26510218 3.4538078 -0.71172291
0.27504352 3.4538078 -0.71172291
0.28388026 3.4522245 -0.71584779
0.2949262 3.4514327 -0.71791029
0.30486751 3.4538078 -0.71172291
0.31480885 3.4538078 -0.71172291
0.32364559 3.4530163 -0.71378535
0.33469152 3.4538078 -0.71172291
0.34463283 3.4538078 -0.71172291
0.35457417 3.4538078 -0.71172291
0.36341092 3.4530163 -0.71378535
0.37445685 3.4526203 -0.71481657
0.38439816 3.4514327 -0.71791029
0.40428084 3.4514327 -0.71791029
-0.33469659 3.4883986 -0.71885109
-0.32465568 3.4883986 -0.71885109
-0.31461477 3.4883986 -0.71885109
-0.30457386 3.4883986 -0.71885109
-0.29453295 3.4883986 -0.71885109
-0.28449208 3.4883986 -0.71885109
-0.2744512 3.4883986 -0.71885109
-0.26441029 3.4883986 -0.71885109
-0.2443285 3.4883986 -0.71885109
-0.14391953 3.4883986 -0.71885109
-0.13387862 3.4883986 -0.71885109
-0.12383773 3.4883986 -0.71885109
-0.11379683 3.4883986 -0.71885109
-0.10375594 3.4883986 -0.71885109
-0.093715042 3.4883986 -0.71885109
-0.08367414 3.4883986 -0.71885109
-0.076980211 3.4883986 -0.71885109
-0.050204486 3.4883986 -0.71885109
-0.043510552 3.4883986 -0.71885109
-0.033469658 3.4883986 -0.71885109
-0.02342876 3.4883986 -0.71885109
-0.016734829 3.4883986 -0.71885109
0.0033469656 3.4883986 -0.71885109
0.11714379 3.4883986 -0.71885109
0.25102243 3.4883986 -0.71885109
0.29453295 3.4883986 -0.71885109
0.38490105 3.4883986 -0.71885109
0.39494193 3.4883986 -0.71885109
0.40498284 3.4883986 -0.71885109
0.41167676 3.4883986 -0.71885109
-0.45518732 3.4907975 -0.71260178
-0.44514644 3.4907975 -0.71260178
-0.43175858 3.4907975 -0.71260178
-0.42506465 3.4907975 -0.71260178
-0.40498284 3.4907975 -0.71260178
-0.39159498 3.4907975 -0.71260178
-0.38490105 3.4907975 -0.71260178
-0.37486017 3.4907975 -0.71260178
-0.36481926 3.4907975 -0.71260178
-0.35477835 3.4907975 -0.71260178
-0.34473747 3.4907975 -0.71260178
-0.33469659 3.4907975 -0.71260178
-0.30457386 3.4907975 -0.71260178
-0.29453295 3.4907975 -0.71260178
-0.28449208 3.4907975 -0.71260178
-0.2744512 3.4907975 -0.71260178
-0.26441029 3.4907975 -0.71260178
-0.25436938 3.4907975 -0.71260178
-0.15061346 3.4907975 -0.71260178
-0.13387862 3.4907975 -0.71260178
-0.12383773 3.4907975 -0.71260178
-0.11714379 3.4907975 -0.71260178
-0.10375594 3.4907975 -0.71260178
-0.09036807 3.4907975 -0.71260178
-0.043510552 3.4907975 -0.71260178
-0.033469658 3.4907975 -0.71260178
-0.02342876 3.4907975 -0.71260178
-0.013387863 3.4907975 -0.71260178
-0.0033469656 3.4907975 -0.71260178
0.0033469656 3.4907975 -0.71260178
0.013387863 3.4907975 -0.71260178
0.076980211 3.4907975 -0.71260178
0.093715042 3.4907975 -0.71260178
0.10375594 3.4907975 -0.71260178
0.11379683 3.4907975 -0.71260178
0.12383773 3.4907975 -0.71260178
0.13387862 3.4907975 -0.71260178
0.14391953 3.4907975 -0.71260178
0.15396042 3.4907975 -0.71260178
0.16400132 3.4907975 -0.71260178
0.21755277 3.4907975 -0.71260178
0.2242467 3.4907975 -0.71260178
0.23428759 3.4907975 -0.71260178
0.2443285 3.4907975 -0.71260178
0.26441029 3.4907975 -0.71260178
0.27110422 3.4907975 -0.71260178
0.28449208 3.4907975 -0.71260178
0.29453295 3.4907975 -0.71260178
0.30457386 3.4907975 -0.71260178
0.31461477 3.4907975 -0.71260178
0.32465568 3.4907975 -0.71260178
0.36481926 3.4907975 -0.71260178
0.37820712 3.4907975 -0.71260178
0.38490105 3.4907975 -0.71260178
0.39494193 3.4907975 -0.71260178
0.40498284 3.4907975 -0.71260178
0.41167676 3.4907975 -0.71260178
-0.36174828 3.5285351 -0.71349812
-0.35498661 3.5285351 -0.71349812
-0.34484416 3.5285351 -0.71349812
-0.32455921 3.5273235 -0.71665442
-0.31441674 3.5273235 -0.71665442
-0.30427426 3.5285351 -0.71349812
-0.29413179 3.5285351 -0.71349812
-0.28398931 3.5285351 -0.71349812
-0.15213713 3.5285351 -0.71349812
-0.14537548 3.5273235 -0.71665442
-0.135233 3.5285351 -0.71349812
-0.12509052 3.5285351 -0.71349812
-0.11382111 3.5277274 -0.71560234
-0.10480557 3.5285351 -0.71349812
-0.095790036 3.5277274 -0.71560234
-0.084520623 3.5273235 -0.71665442
-0.075505085 3.5269196 -0.7177065
-0.064235672 3.5261118 -0.71981072
-0.054093197 3.5261118 -0.71981072
-0.043950725 3.5285351 -0.71349812
-0.03380825 3.5285351 -0.71349812
-0.023665775 3.5285351 -0.71349812
-0.013523299 3.5285351 -0.71349812
0.003380825 3.5285351 -0.71349812
0.084520623 3.5273235 -0.71665442
0.12509052 3.5285351 -0.71349812
0.29413179 3.5285351 -0.71349812
0.30427426 3.5285351 -0.71349812
0.32794002 3.5285351 -0.71349812
0.40569901 3.5285351 -0.71349812
-0.15369189 3.5670428 -0.71441275
-0.14686114 3.5670428 -0.71441275
-0.085384384 3.5670428 -0.71441275
-0.075138256 3.5670428 -0.71441275
-0.064892128 3.5670428 -0.71441275
-0.054646004 3.5670428 -0.71441275
-0.037569128 3.5670428 -0.71441275
0.0034153752 3.5670428 -0.71441275
0.085384384 3.5670428 -0.71441275
-0.072463401 3.6063449 -0.71534592
-0.065562129 3.6063449 -0.71534592
-0.05521021 3.6063449 -0.71534592
-0.038352996 3.646466 -0.71629852
-0.63141686 3.0024724 -0.70372647
-0.62559736 3.0024724 -0.70372647
-0.62522364 3.0299065 -0.70716965
-0.61641765 3.0299065 -0.70716965
-0.62522364 3.0320103 -0.70168889
-0.61641765 3.0320103 -0.70168889
-0.61299789 3.0588875 -0.70790905
-0.61299789 3.0610101 -0.7023797
-0.60707521 3.0610101 -0.7023797
-0.60652888 3.0883861 -0.70866144
-0.60597259 3.1184161 -0.70942712
-0.60597259 3.1205769 -0.70379806
-0.60540599 3.1511729 -0.70452642
-0.60482883 3.1823306 -0.70526791
-0.59868842 3.1823306 -0.70526791
-0.59184611 3.2140648 -0.70602304
-0.59113091 3.2463927 -0.70679212
-0.58487552 3.2475135 -0.7038722
-0.5786202 3.2475135 -0.7038722
-0.57777309 3.279331 -0.7075755
-0.57777309 3.281594 -0.70168042
-0.57690972 3.3140388 -0.70539808
0.25180036 3.3128965 -0.70837373
-0.5760296 3.3482611 -0.70618284
-0.4408718 3.3471079 -0.70918715
-0.17055625 3.3471079 -0.70918715
0.0096541271 3.3471079 -0.70918715
0.016090212 3.3471079 -0.70918715
0.022526296 3.3471079 -0.70918715
0.048270635 3.3471079 -0.70918715
0.054706719 3.3471079 -0.70918715
0.061142802 3.3471079 -0.70918715
0.074014969 3.3471079 -0.70918715
0.080451056 3.3471079 -0.70918715
0.16412015 3.3471079 -0.70918715
0.22526297 3.3471079 -0.70918715
0.23491709 3.3482611 -0.70618284
0.24457121 3.3471079 -0.70918715
0.25422534 3.3471079 -0.70918715
0.26387948 3.3471079 -0.70918715
-0.57513213 3.3843126 -0.70394903
-0.56538415 3.3843126 -0.70394903
-0.51014549 3.3843126 -0.70394903
-0.50364679 3.3843126 -0.70394903
-0.49389881 3.3843126 -0.70394903
-0.4841508 3.3843126 -0.70394903
-0.47440279 3.3843126 -0.70394903
-0.46465477 3.3843126 -0.70394903
-0.45815611 3.3843126 -0.70394903
-0.44515878 3.3843126 -0.70394903
-0.43866012 3.3843126 -0.70394903
-0.42566279 3.3843126 -0.70394903
-0.41916412 3.3843126 -0.70394903
-0.20470805 3.3843126 -0.70394903
-0.19171071 3.3843126 -0.70394903
-0.18521205 3.3843126 -0.70394903
-0.17546405 3.3843126 -0.70394903
-0.15271871 3.3843126 -0.70394903
0.23395206 3.3843126 -0.70394903
0.25019872 3.3843126 -0.70394903
-0.56109202 3.4198954 -0.70473468
-0.55452955 3.4198954 -0.70473468
-0.54796702 3.4198954 -0.70473468
-0.5282796 3.4198954 -0.70473468
-0.51515466 3.4198954 -0.70473468
-0.50859219 3.4198954 -0.70473468
-0.48234224 3.4198954 -0.70473468
-0.47577977 3.4198954 -0.70473468
-0.46593606 3.4198954 -0.70473468
-0.41015497 3.4198954 -0.70473468
-0.4035925 3.4198954 -0.70473468
-0.39374876 3.4198954 -0.70473468
-0.38390505 3.4198954 -0.70473468
-0.21656182 3.4198954 -0.70473468
-0.20015563 3.4198954 -0.70473468
-0.19359314 3.4198954 -0.70473468
-0.18374944 3.4198954 -0.70473468
-0.17390572 3.4198954 -0.70473468
-0.16078074 3.4198954 -0.70473468
-0.15421827 3.4198954 -0.70473468
-0.14765579 3.4198954 -0.70473468
0.022968678 3.4198954 -0.70473468
0.049218595 3.4198954 -0.70473468
0.055781078 3.4198954 -0.70473468
0.062343556 3.4198954 -0.70473468
0.16734323 3.4198954 -0.70473468
0.17390572 3.4198954 -0.70473468
-0.54345948 3.456183 -0.70553559
-0.53351814 3.456183 -0.70553559
-0.52689058 3.456183 -0.70553559
-0.4838115 3.456183 -0.70553559
-0.47387016 3.456183 -0.70553559
-0.46392882 3.456183 -0.70553559
-0.43410483 3.456183 -0.70553559
-0.41422218 3.456183 -0.70553559
-0.40759462 3.456183 -0.70553559
-0.3943395 3.456183 -0.70553559
-0.24190575 3.456183 -0.70553559
-0.23527819 3.456183 -0.70553559
-0.22533685 3.456183 -0.70553559
-0.21539553 3.456183 -0.70553559
-0.2054542 3.456183 -0.70553559
-0.19551286 3.456183 -0.70553559
-0.18557152 3.456183 -0.70553559
-0.1756302 3.456183 -0.70553559
-0.16568887 3.456183 -0.70553559
-0.15574753 3.456183 -0.70553559
0.02651022 3.456183 -0.70553559
0.036451552 3.456183 -0.70553559
0.04639288 3.456183 -0.70553559
0.056334216 3.456183 -0.70553559
0.066275552 3.456183 -0.70553559
0.16900264 3.456183 -0.70553559
0.1756302 3.456183 -0.70553559
0.18557152 3.456183 -0.70553559
0.19551286 3.456183 -0.70553559
0.2054542 3.456183 -0.70553559
0.24853329 3.456183 -0.70553559
0.25516087 3.456183 -0.70553559
0.27504352 3.456183 -0.70553559
0.32806396 3.456183 -0.70553559
0.33469152 3.456183 -0.70553559
0.34463283 3.456183 -0.70553559
0.35457417 3.456183 -0.70553559
0.36782929 3.456183 -0.70553559
-0.55671197 3.4939959 -0.70426935
-0.54555541 3.4931962 -0.70635241
-0.53551447 3.4943957 -0.70322776
-0.52547359 3.4955952 -0.7001031
-0.51543272 3.4955952 -0.7001031
-0.50539184 3.4955952 -0.7001031
-0.49423525 3.4947956 -0.70218617
-0.48531002 3.4943957 -0.70322776
-0.47526914 3.4943957 -0.70322776
-0.46522823 3.4943957 -0.70322776
-0.45518732 3.4943957 -0.70322776
-0.44514644 3.4931962 -0.70635241
-0.43510556 3.4931962 -0.70635241
-0.42506465 3.4931962 -0.70635241
-0.41502374 3.4931962 -0.70635241
-0.40498284 3.4943957 -0.70322776
-0.39494196 3.4943957 -0.70322776
-0.38490105 3.4943957 -0.70322776
-0.37486017 3.4943957 -0.70322776
-0.36481926 3.4943957 -0.70322776
-0.35477835 3.4955952 -0.7001031
-0.34473747 3.4955952 -0.7001031
-0.33469659 3.4943957 -0.70322776
-0.27110422 3.4931962 -0.70635241
-0.26441029 3.4931962 -0.70635241
-0.25436938 3.4931962 -0.70635241
-0.2443285 3.4931962 -0.70635241
-0.23428759 3.4943957 -0.70322776
-0.21532147 3.4947956 -0.70218617
-0.20416491 3.4931962 -0.70635241
-0.19300836 3.4947956 -0.70218617
-0.1840831 3.4931962 -0.70635241
-0.17404221 3.4931962 -0.70635241
-0.16400132 3.4931962 -0.70635241
-0.15730739 3.4931962 -0.70635241
-0.0033469656 3.4931962 -0.70635241
0.013387863 3.4931962 -0.70635241
0.02342876 3.4943957 -0.70322776
0.033469658 3.4943957 -0.70322776
0.043510552 3.4943957 -0.70322776
0.05355145 3.4943957 -0.70322776
0.063592345 3.4943957 -0.70322776
0.073633246 3.4943957 -0.70322776
0.093715042 3.4931962 -0.70635241
0.10375594 3.4943957 -0.70322776
0.11379683 3.4931962 -0.70635241
0.13387862 3.4931962 -0.70635241
0.14391953 3.4931962 -0.70635241
0.15396042 3.4931962 -0.70635241
0.16400132 3.4931962 -0.70635241
0.17515786 3.4939959 -0.70426935
0.1840831 3.4931962 -0.70635241
0.19300836 3.4939959 -0.70426935
0.20416491 3.4931962 -0.70635241
0.2142058 3.4931962 -0.70635241
0.2242467 3.4931962 -0.70635241
0.23428759 3.4931962 -0.70635241
0.2443285 3.4931962 -0.70635241
0.25325373 3.4939959 -0.70426935
0.26441029 3.4931962 -0.70635241
0.2744512 3.4931962 -0.70635241
0.28449208 3.4931962 -0.70635241
0.31461477 3.4931962 -0.70635241
0.33469659 3.4931962 -0.70635241
0.34473747 3.4931962 -0.70635241
0.35477835 3.4931962 -0.70635241
0.36481926 3.4931962 -0.70635241
0.37597582 3.4947956 -0.70218617
0.38490105 3.4943957 -0.70322776
0.39159498 3.4943957 -0.70322776
0.41167676 3.4943957 -0.70322776
-0.56459779 3.5333812 -0.70087308
-0.55558223 3.5317659 -0.7050814
-0.53078949 3.5333812 -0.70087308
-0.51726621 3.5333812 -0.70087308
-0.50374293 3.5333812 -0.70087308
-0.47669631 3.5333812 -0.70087308
-0.46655387 3.5333812 -0.70087308
-0.45641136 3.5333812 -0.70087308
-0.44626892 3.5321698 -0.70402932
-0.43612641 3.5321698 -0.70402932
-0.42485702 3.5317659 -0.7050814
-0.41584146 3.5321698 -0.70402932
-0.40569901 3.5333812 -0.70087308
-0.38203323 3.5333812 -0.70087308
-0.36850992 3.5333812 -0.70087308
-0.34484416 3.5333812 -0.70087308
-0.33470166 3.5321698 -0.70402932
-0.32455921 3.5321698 -0.70402932
-0.31441674 3.5321698 -0.70402932
-0.30427426 3.5321698 -0.70402932
-0.29413179 3.5321698 -0.70402932
-0.28398931 3.5321698 -0.70402932
-0.27384683 3.5321698 -0.70402932
-0.26370436 3.5321698 -0.70402932
-0.25356188 3.5321698 -0.70402932
-0.24454634 3.5325737 -0.70297724
-0.23327692 3.5309582 -0.70718557
-0.22651528 3.5321698 -0.70402932
-0.21637279 3.5333812 -0.70087308
-0.20623033 3.5321698 -0.70402932
-0.19608784 3.5333812 -0.70087308
-0.18594538 3.5309582 -0.70718557
-0.17580289 3.5309582 -0.70718557
-0.16566043 3.5309582 -0.70718557
-0.15889877 3.5309582 -0.70718557
-0.135233 3.5309582 -0.70718557
-0.12509052 3.5309582 -0.70718557
-0.11494805 3.5309582 -0.70718557
-0.10480557 3.5309582 -0.70718557
-0.093536161 3.5317659 -0.7050814
-0.043950725 3.5321698 -0.70402932
-0.030427424 3.5321698 -0.70402932
-0.023665775 3.5321698 -0.70402932
-0.013523299 3.5321698 -0.70402932
-0.003380825 3.5321698 -0.70402932
0.014650241 3.5317659 -0.7050814
0.023665775 3.5333812 -0.70087308
0.030427424 3.5333812 -0.70087308
0.057474025 3.5333812 -0.70087308
0.074378148 3.5333812 -0.70087308
0.094663098 3.5309582 -0.70718557
0.10480557 3.5333812 -0.70087308
0.11494805 3.5321698 -0.70402932
0.12509052 3.5309582 -0.70718557
0.135233 3.5321698 -0.70402932
0.14537548 3.5321698 -0.70402932
0.15551795 3.5321698 -0.70402932
0.16566043 3.5321698 -0.70402932
0.17467594 3.5325737 -0.70297724
0.18594538 3.5321698 -0.70402932
0.19608784 3.5321698 -0.70402932
0.20623033 3.5309582 -0.70718557
0.21637279 3.5321698 -0.70402932
0.22651528 3.5321698 -0.70402932
0.23327692 3.5321698 -0.70402932
0.24341941 3.5321698 -0.70402932
0.25356188 3.5333812 -0.70087308
0.26370436 3.5321698 -0.70402932
0.27384683 3.5321698 -0.70402932
0.28398931 3.5321698 -0.70402932
0.29413179 3.5321698 -0.70402932
0.30427426 3.5321698 -0.70402932
0.31441674 3.5321698 -0.70402932
0.32455918 3.5321698 -0.70402932
0.33470166 3.5321698 -0.70402932
0.34484416 3.5321698 -0.70402932
0.35498661 3.5321698 -0.70402932
0.36512911 3.5309582 -0.70718557
0.38541406 3.5333812 -0.70087308
0.39555651 3.5333812 -0.70087308
0.40569901 3.5309582 -0.70718557
-0.55670619 3.5694907 -0.70803565
-0.54646003 3.5694907 -0.70803565
-0.43375266 3.5694907 -0.70803565
-0.39618352 3.5694907 -0.70803565
-0.37910664 3.5694907 -0.70803565
-0.2356609 3.5694907 -0.70803565
-0.18443026 3.5694907 -0.70803565
-0.17418414 3.5694907 -0.70803565
-0.16393802 3.5694907 -0.70803565
-0.15369189 3.5694907 -0.70803565
-0.14344576 3.5694907 -0.70803565
-0.13319963 3.5694907 -0.70803565
-0.12636888 3.5694907 -0.70803565
-0.11612276 3.5694907 -0.70803565
-0.10587663 3.5694907 -0.70803565
-0.09904588 3.5694907 -0.70803565
-0.085384384 3.5694907 -0.70803565
-0.078553632 3.5694907 -0.70803565
-0.037569128 3.5694907 -0.70803565
0.0034153752 3.5694907 -0.70803565
0.010246126 3.5694907 -0.70803565
0.051230628 3.5694907 -0.70803565
0.085384384 3.5694907 -0.70803565
0.095630504 3.5694907 -0.70803565
0.12636888 3.5694907 -0.70803565
0.20492251 3.5694907 -0.70803565
-0.47473717 3.5719388 -0.70165861
-0.46790642 3.5719388 -0.70165861
-0.45424491 3.5719388 -0.70165861
-0.44399878 3.5719388 -0.70165861
-0.42350653 3.5719388 -0.70165861
-0.4132604 3.5719388 -0.70165861
-0.38593739 3.5719388 -0.70165861
-0.34495291 3.5719388 -0.70165861
-0.31421453 3.5719388 -0.70165861
-0.3039684 3.5719388 -0.70165861
-0.29713765 3.5719388 -0.70165861
-0.27664539 3.5719388 -0.70165861
-0.26298389 3.5719388 -0.70165861
-0.25615314 3.5719388 -0.70165861
-0.24590701 3.5719388 -0.70165861
-0.2356609 3.5719388 -0.70165861
-0.22883014 3.5719388 -0.70165861
-0.20150714 3.5719388 -0.70165861
-0.19467638 3.5719388 -0.70165861
-0.18443026 3.5719388 -0.70165861
-0.14344576 3.5719388 -0.70165861
-0.13319963 3.5719388 -0.70165861
-0.12636888 3.5719388 -0.70165861
-0.11612276 3.5719388 -0.70165861
-0.10587663 3.5719388 -0.70165861
-0.095630504 3.5719388 -0.70165861
-0.085384384 3.5719388 -0.70165861
-0.044399876 3.5719388 -0.70165861
-0.030738376 3.5719388 -0.70165861
-0.023907626 3.5719388 -0.70165861
-0.013661501 3.5719388 -0.70165861
-0.0034153752 3.5719388 -0.70165861
0.0034153752 3.5719388 -0.70165861
0.010246126 3.5719388 -0.70165861
0.037569128 3.5719388 -0.70165861
0.044399876 3.5719388 -0.70165861
0.051230628 3.5719388 -0.70165861
0.078553632 3.5719388 -0.70165861
0.085384384 3.5719388 -0.70165861
0.095630504 3.5719388 -0.70165861
0.11612276 3.5719388 -0.70165861
0.12636888 3.5719388 -0.70165861
0.19467638 3.5719388 -0.70165861
0.20492251 3.5719388 -0.70165861
0.21516864 3.5719388 -0.70165861
0.22199939 3.5719388 -0.70165861
0.2356609 3.5719388 -0.70165861
0.25615314 3.5719388 -0.70165861
0.26639926 3.5719388 -0.70165861
0.28347614 3.5719388 -0.70165861
0.2903069 3.5719388 -0.70165861
-0.43823105 3.6088181 -0.70890301
-0.41062596 3.6088181 -0.70890301
-0.40372467 3.6088181 -0.70890301
-0.39682341 3.6088181 -0.70890301
-0.38302085 3.6088181 -0.70890301
-0.37611955 3.6088181 -0.70890301
-0.36921829 3.6088181 -0.70890301
-0.17598255 3.6088181 -0.70890301
-0.16563064 3.6088181 -0.70890301
-0.15527873 3.6088181 -0.70890301
-0.07591404 3.6088181 -0.70890301
-0.065562129 3.6088181 -0.70890301
-0.05521021 3.6088181 -0.70890301
-0.52794766 3.6112914 -0.70246017
-0.44513234 3.6112914 -0.70246017
-0.43478042 3.6112914 -0.70246017
-0.4140766 3.6112914 -0.70246017
-0.40372467 3.6112914 -0.70246017
-0.39682341 3.6112914 -0.70246017
-0.38647148 3.6112914 -0.70246017
-0.37611955 3.6112914 -0.70246017
-0.33471191 3.6112914 -0.70246017
-0.32436001 3.6112914 -0.70246017
-0.31400809 3.6112914 -0.70246017
-0.25534722 3.6112914 -0.70246017
-0.18633446 3.6112914 -0.70246017
-0.17598255 3.6112914 -0.70246017
-0.16908127 3.6112914 -0.70246017
-0.15527873 3.6112914 -0.70246017
-0.14837745 3.6112914 -0.70246017
-0.086265959 3.6112914 -0.70246017
-0.07591404 3.6112914 -0.70246017
-0.065562129 3.6112914 -0.70246017
-0.37307006 3.6489651 -0.70978844
-0.35215023 3.6489651 -0.70978844
-0.34517696 3.6489651 -0.70978844
-0.1638719 3.6489651 -0.70978844
-0.055786178 3.6489651 -0.70978844
-0.40096316 3.651464 -0.70327824
-0.39398986 3.651464 -0.70327824
-0.38352996 3.651464 -0.70327824
-0.37307006 3.651464 -0.70327824
-0.36609679 3.651464 -0.70327824
-0.35563686 3.651464 -0.70327824
-0.34517696 3.651464 -0.70327824
-0.3382037 3.651464 -0.70327824
-0.1743318 3.651464 -0.70327824
-0.1638719 3.651464 -0.70327824
-0.15689862 3.651464 -0.70327824
-0.05229954 3.651464 -0.70327824
-0.61299789 3.0631325 -0.69685042
-0.60597259 3.1238179 -0.69535434
-0.60540599 3.1544435 -0.69600594
-0.60482883 3.184531 -0.69953537
-0.5945949 3.1852646 -0.6976245
-0.58640766 3.1867316 -0.69380277
-0.58564878 3.2185068 -0.69445157
-0.58487552 3.2508762 -0.69511235
-0.5786202 3.2508762 -0.69511235
-0.57777309 3.2838569 -0.6957854
-0.57690972 3.3174653 -0.69647115
-0.5760296 3.352874 -0.69416565
-0.56959349 3.3540273 -0.69116133
-0.56646729 3.3874178 -0.69585973
-0.49389881 3.3866415 -0.69788206
-0.4841508 3.3866415 -0.69788206
-0.565467 3.4230311 -0.69656587
-0.55452955 3.4222472 -0.6986081
-0.54796702 3.4222472 -0.6986081
-0.51515466 3.4222472 -0.6986081
-0.50531095 3.4222472 -0.6986081
-0.49546722 3.4222472 -0.6986081
-0.48890471 3.4222472 -0.6986081
-0.56334215 3.4585581 -0.69934821
-0.52026302 3.4585581 -0.69934821
-0.51363552 3.4585581 -0.69934821
-0.50369418 3.4585581 -0.69934821
-0.49375284 3.4585581 -0.69934821
-0.23527819 3.4585581 -0.69934821
-0.22202308 3.4585581 -0.69934821
-0.20876797 3.4585581 -0.69934821
-0.19551286 3.4585581 -0.69934821
0.36782929 3.4585581 -0.69934821
-0.5187797 3.4979942 -0.6938538
-0.50539184 3.4979942 -0.6938538
-0.49200395 3.4979942 -0.6938538
-0.48531002 3.4979942 -0.6938538
-0.47861609 3.4979942 -0.6938538
-0.35477835 3.4979942 -0.6938538
0.036816623 3.4979942 -0.6938538
0.043510552 3.4979942 -0.6938538
0.063592345 3.4979942 -0.6938538
0.35812533 3.4979942 -0.6938538
0.36481926 3.4979942 -0.6938538
0.37151319 3.4979942 -0.6938538
0.39828891 3.4979942 -0.6938538
0.40498284 3.4979942 -0.6938538
0.41167676 3.4979942 -0.6938538
-0.51388538 3.5358045 -0.69456053
-0.50374293 3.5358045 -0.69456053
-0.49360043 3.5358045 -0.69456053
-0.48345798 3.5358045 -0.69456053
-0.47669631 3.5358045 -0.69456053
-0.45641136 3.5358045 -0.69456053
-0.35498661 3.5358045 -0.69456053
-0.34822497 3.5358045 -0.69456053
-0.33470166 3.5358045 -0.69456053
-0.32455921 3.5358045 -0.69456053
-0.28398931 3.5358045 -0.69456053
-0.26708516 3.5358045 -0.69456053
-0.21637279 3.5358045 -0.69456053
-0.20623033 3.5358045 -0.69456053
0.016904125 3.5358045 -0.69456053
0.023665775 3.5358045 -0.69456053
0.030427424 3.5358045 -0.69456053
0.057474025 3.5358045 -0.69456053
0.064235672 3.5358045 -0.69456053
0.070997328 3.5358045 -0.69456053
0.10480557 3.5358045 -0.69456053
0.135233 3.5358045 -0.69456053
0.14537548 3.5358045 -0.69456053
0.15551795 3.5358045 -0.69456053
0.16566043 3.5358045 -0.69456053
0.17580289 3.5358045 -0.69456053
0.18594538 3.5358045 -0.69456053
0.22651528 3.5358045 -0.69456053
0.24341941 3.5358045 -0.69456053
0.27384683 3.5358045 -0.69456053
0.29413179 3.5358045 -0.69456053
0.30427426 3.5358045 -0.69456053
0.31441674 3.5358045 -0.69456053
0.32455921 3.5358045 -0.69456053
0.33470166 3.5358045 -0.69456053
0.34484416 3.5358045 -0.69456053
0.35498661 3.5358045 -0.69456053
0.37527156 3.5358045 -0.69456053
0.38541406 3.5358045 -0.69456053
-0.50547552 3.5743866 -0.69528157
-0.49522939 3.5743866 -0.69528157
-0.47473717 3.5743866 -0.69528157
-0.46449104 3.5743866 -0.69528157
-0.45424491 3.5743866 -0.69528157
-0.44741416 3.5743866 -0.69528157
-0.42009115 3.5743866 -0.69528157
-0.35519901 3.5743866 -0.69528157
-0.3039684 3.5743866 -0.69528157
-0.29372227 3.5743866 -0.69528157
-0.28347614 3.5743866 -0.69528157
-0.27664539 3.5743866 -0.69528157
-0.26639926 3.5743866 -0.69528157
-0.24249165 3.5743866 -0.69528157
-0.2356609 3.5743866 -0.69528157
-0.22541477 3.5743866 -0.69528157
-0.20492251 3.5743866 -0.69528157
-0.19467638 3.5743866 -0.69528157
-0.14003038 3.5743866 -0.69528157
-0.13319963 3.5743866 -0.69528157
-0.12636888 3.5743866 -0.69528157
-0.11612276 3.5743866 -0.69528157
-0.10587663 3.5743866 -0.69528157
-0.095630504 3.5743866 -0.69528157
-0.044399876 3.5743866 -0.69528157
-0.034153752 3.5743866 -0.69528157
-0.023907626 3.5743866 -0.69528157
-0.013661501 3.5743866 -0.69528157
-0.0034153752 3.5743866 -0.69528157
0.0034153752 3.5743866 -0.69528157
0.010246126 3.5743866 -0.69528157
0.051230628 3.5743866 -0.69528157
0.078553632 3.5743866 -0.69528157
0.085384384 3.5743866 -0.69528157
0.095630504 3.5743866 -0.69528157
0.11612276 3.5743866 -0.69528157
0.12636888 3.5743866 -0.69528157
0.13319963 3.5743866 -0.69528157
0.19467638 3.5743866 -0.69528157
0.20492251 3.5743866 -0.69528157
0.21516864 3.5743866 -0.69528157
0.22541477 3.5743866 -0.69528157
0.2356609 3.5743866 -0.69528157
0.26639926 3.5743866 -0.69528157
0.27664539 3.5743866 -0.69528157
0.28347614 3.5743866 -0.69528157
0.29372227 3.5743866 -0.69528157
0.3039684 3.5743866 -0.69528157
0.31079915 3.5743866 -0.69528157
0.35861439 3.5743866 -0.69528157
-0.52794766 3.6137645 -0.69601727
-0.47963873 3.6137645 -0.69601727
-0.46583617 3.6137645 -0.69601727
-0.45548424 3.6137645 -0.69601727
-0.44513234 3.6137645 -0.69601727
-0.43478042 3.6137645 -0.69601727
-0.42442849 3.6137645 -0.69601727
-0.4140766 3.6137645 -0.69601727
-0.40372467 3.6137645 -0.69601727
-0.32436001 3.6137645 -0.69601727
-0.31400809 3.6137645 -0.69601727
-0.30365616 3.6137645 -0.69601727
-0.26569915 3.6137645 -0.69601727
-0.25534722 3.6137645 -0.69601727
-0.24499531 3.6137645 -0.69601727
-0.23119277 3.6137645 -0.69601727
-0.22429149 3.6137645 -0.69601727
-0.21048893 3.6137645 -0.69601727
-0.20358765 3.6137645 -0.69601727
-0.19668637 3.6137645 -0.69601727
-0.18633446 3.6137645 -0.69601727
-0.14492682 3.6137645 -0.69601727
-0.13457489 3.6137645 -0.69601727
-0.11387106 3.6137645 -0.69601727
-0.10351915 3.6137645 -0.69601727
-0.09316723 3.6137645 -0.69601727
-0.086265959 3.6137645 -0.69601727
-0.07591404 3.6137645 -0.69601727
-0.065562129 3.6137645 -0.69601727
-0.05866085 3.6137645 -0.69601727
-0.39398986 3.656462 -0.69025803
-0.38352996 3.6552124 -0.6935131
-0.37307006 3.6552124 -0.6935131
-0.36609679 3.6552124 -0.6935131
-0.35563686 3.6552124 -0.6935131
-0.34517696 3.6552124 -0.6935131
-0.33471707 3.6539631 -0.69676816
-0.26149771 3.656462 -0.69025803
-0.19641383 3.6547959 -0.69459814
-0.18479171 3.6552124 -0.6935131
-0.1743318 3.6552124 -0.69351315
-0.1638719 3.6552124 -0.6935131
-0.15689862 3.6552124 -0.6935131
-0.14295208 3.6539631 -0.69676816
-0.094139174 3.6552124 -0.6935131
-0.083679259 3.6552124 -0.69351315
-0.073219359 3.6552124 -0.6935131
-0.066246085 3.6552124 -0.6935131
-0.04532627 3.656462 -0.69025803
-0.58640766 3.1889322 -0.68807018
-0.57945138 3.2229486 -0.68288016
-0.5786202 3.2542386 -0.68635249
-0.57461584 3.287251 -0.68694282
-0.5760296 3.3563337 -0.68515277
-0.56959349 3.3563337 -0.68515277
-0.5686335 3.3912992 -0.68574798
-0.56109202 3.4281266 -0.68329155
-0.55452955 3.4281266 -0.68329155
0.070286281 3.5027919 -0.68135512
0.35812533 3.5003929 -0.68760449
0.36481926 3.5015924 -0.68447983
0.39605761 3.5011928 -0.68552136
0.40498284 3.5015924 -0.68447983
0.41390809 3.5019922 -0.6834383
-0.51050454 3.5382276 -0.68824792
-0.48345798 3.5382276 -0.68824792
-0.47669631 3.5382276 -0.68824792
-0.21299197 3.5382276 -0.68824792
0.016904125 3.5382276 -0.68824792
0.023665775 3.5382276 -0.68824792
0.03380825 3.5382276 -0.68824792
0.043950725 3.5382276 -0.68824792
0.057474025 3.5382276 -0.68824792
0.064235672 3.5382276 -0.68824792
0.10480557 3.5382276 -0.68824792
0.13861382 3.5382276 -0.68824792
0.14537548 3.5382276 -0.68824792
0.15551795 3.5382276 -0.68824792
0.16566043 3.5382276 -0.68824792
0.17580289 3.5382276 -0.68824792
0.18594538 3.5382276 -0.68824792
0.24341941 3.5382276 -0.68824792
0.25356188 3.5382276 -0.68824792
0.31441674 3.5382276 -0.68824792
0.32455921 3.5382276 -0.68824792
0.33470166 3.5382276 -0.68824792
0.34484416 3.5382276 -0.68824792
0.36174828 3.5382276 -0.68824792
0.37527156 3.5382276 -0.68824792
0.38541406 3.5382276 -0.68824792
0.39555651 3.5382276 -0.68824792
0.023665775 3.5406508 -0.68193543
0.03380825 3.5406508 -0.68193543
0.043950725 3.5406508 -0.68193543
0.054093197 3.5406508 -0.68193543
0.064235672 3.5406508 -0.68193543
0.070997328 3.5406508 -0.68193543
0.135233 3.5406508 -0.68193543
0.14537548 3.5406508 -0.68193543
0.15551795 3.5406508 -0.68193543
0.16566043 3.5406508 -0.68193543
0.17580289 3.5406508 -0.68193543
0.22651528 3.5406508 -0.68193543
0.24341941 3.5406508 -0.68193543
0.25356188 3.5406508 -0.68193543
0.26370436 3.5406508 -0.68193543
0.27384683 3.5406508 -0.68193543
0.31441674 3.5406508 -0.68193543
0.32117838 3.5406508 -0.68193543
0.34484416 3.5406508 -0.68193543
0.36174828 3.5406508 -0.68193543
0.37527156 3.5406508 -0.68193543
0.38203323 3.5406508 -0.68193543
-0.51572168 3.5768344 -0.68890452
-0.50433707 3.5776503 -0.68677884
-0.49522939 3.5780585 -0.68571597
-0.4849833 3.5780585 -0.68571597
-0.46790642 3.5768344 -0.68890452
-0.2903069 3.5768344 -0.68890452
-0.28347614 3.5768344 -0.68890452
-0.27664539 3.5768344 -0.68890452
-0.26981464 3.5768344 -0.68890452
-0.2356609 3.5768344 -0.68890452
-0.21516864 3.5768344 -0.68890452
-0.12636888 3.5768344 -0.68890452
-0.11953814 3.5768344 -0.68890452
-0.044399876 3.5780585 -0.68571597
-0.033015292 3.5776503 -0.68677884
-0.023907626 3.5780585 -0.68571597
-0.013661501 3.5768344 -0.68890452
-0.0034153752 3.5768344 -0.68890452
0.0034153752 3.5768344 -0.68890452
0.013661502 3.5780585 -0.68571597
0.023907626 3.5792825 -0.68252742
0.051230628 3.5792825 -0.68252742
0.076276712 3.5784664 -0.6846531
0.085384384 3.5780585 -0.68571597
0.095630504 3.5780585 -0.68571597
0.10587663 3.5780585 -0.68571597
0.11612276 3.5780585 -0.68571603
0.12636888 3.5768344 -0.68890452
0.18784563 3.5768344 -0.68890452
0.19467638 3.5780585 -0.68571597
0.20492251 3.5780585 -0.68571597
0.21516864 3.5768344 -0.68890452
0.22199939 3.5768344 -0.68890452
0.2356609 3.5768344 -0.68890452
0.28347614 3.5768344 -0.68890452
0.29372227 3.5768344 -0.68890452
0.3039684 3.5768344 -0.68890452
0.31079915 3.5768344 -0.68890452
0.33470678 3.5768344 -0.68890452
0.35861439 3.5768344 -0.68890452
-0.5210464 3.618711 -0.68313146
-0.47618806 3.6174743 -0.68635285
-0.46583617 3.6174743 -0.68635291
-0.45548424 3.6174746 -0.68635291
-0.44513234 3.6174743 -0.68635291
-0.43478042 3.6174743 -0.68635285
-0.42442849 3.6162376 -0.68957436
-0.4140766 3.6174746 -0.68635291
-0.40372467 3.6174743 -0.68635291
-0.39682341 3.6174743 -0.68635291
-0.38992211 3.6162376 -0.68957436
-0.33471191 3.618711 -0.68313146
-0.32320979 3.6178865 -0.68527907
-0.31400809 3.6174743 -0.68635291
-0.30365616 3.6174743 -0.68635285
-0.29330426 3.6174743 -0.68635291
-0.28640297 3.6174743 -0.68635291
-0.27605104 3.6174743 -0.68635285
-0.26569915 3.6174743 -0.68635291
-0.254197 3.6170623 -0.68742675
-0.24499531 3.6174743 -0.68635291
-0.2346434 3.6174743 -0.68635285
-0.22429149 3.6174743 -0.68635291
-0.21393958 3.6174743 -0.68635285
-0.20358765 3.6174743 -0.68635291
-0.18978511 3.618711 -0.68313146
-0.14607702 3.6178865 -0.68527907
-0.13457489 3.6174743 -0.68635291
-0.12422297 3.6174746 -0.68635291
-0.11387106 3.6174743 -0.68635291
-0.10351914 3.6174743 -0.68635285
-0.05521021 3.6174746 -0.68635291
-0.035656594 3.6178865 -0.68527907
-0.024154468 3.618711 -0.68313146
-0.013802553 3.6174743 -0.68635285
-0.0034506381 3.6174743 -0.68635291
0.0034506381 3.6174743 -0.68635291
-0.53345531 3.6589611 -0.68374795
-0.46372259 3.6589611 -0.68374795
-0.39398986 3.6589611 -0.68374795
-0.38352996 3.6589611 -0.68374795
-0.37307006 3.6589611 -0.68374795
-0.36609679 3.6589611 -0.68374795
-0.35563686 3.6589611 -0.68374795
-0.34517696 3.6589611 -0.68374795
-0.28590417 3.6589611 -0.68374795
-0.27544424 3.6589611 -0.68374795
-0.26498434 3.6589611 -0.68374795
-0.25452444 3.6589611 -0.68374795
-0.2126848 3.6589611 -0.68374795
-0.20571153 3.6589611 -0.68374795
-0.19525161 3.6589611 -0.68374795
-0.18479171 3.6589611 -0.68374795
-0.1743318 3.6589611 -0.68374795
-0.1638719 3.6589611 -0.68374795
-0.15689862 3.6589611 -0.68374795
-0.083679259 3.6589611 -0.68374795
-0.073219359 3.6589611 -0.68374795
-0.066246085 3.6589611 -0.68374795
-0.059272811 3.6589611 -0.68374795
-0.04532627 3.6589611 -0.68374795
-0.5760296 3.3586402 -0.67914414
-0.56959349 3.3586402 -0.67914414
-0.56315738 3.3609467 -0.67313552
-0.5621348 3.3947928 -0.67664742
-0.56765449 3.4316542 -0.67410165
0.36481926 3.5051908 -0.67510581
0.38490105 3.5051908 -0.67510581
0.39494193 3.5051908 -0.67510581
0.40498284 3.5051908 -0.67510581
0.41502374 3.5051908 -0.67510581
-0.51050454 3.5430739 -0.67562288
-0.50374293 3.5430739 -0.67562288
0.03380825 3.5430739 -0.67562288
0.043950725 3.5430739 -0.67562288
0.057474025 3.5430739 -0.67562288
0.064235672 3.5430739 -0.67562288
0.12509052 3.5430739 -0.67562288
0.135233 3.5430739 -0.67562288
0.14537548 3.5430739 -0.67562288
0.15551795 3.5430739 -0.67562288
0.16566043 3.5430739 -0.67562288
0.17580289 3.5430739 -0.67562288
0.18594538 3.5430739 -0.67562288
0.21637279 3.5430739 -0.67562288
0.22651528 3.5430739 -0.67562288
0.23327692 3.5430739 -0.67562288
0.24341941 3.5430739 -0.67562288
0.26370436 3.5430739 -0.67562288
0.27384683 3.5430739 -0.67562288
0.28398931 3.5430739 -0.67562288
0.29413179 3.5430739 -0.67562288
0.30427426 3.5430739 -0.67562288
0.31441674 3.5430739 -0.67562288
0.32455921 3.5430739 -0.67562288
0.33470166 3.5430739 -0.67562288
0.34484416 3.5430739 -0.67562288
0.35498661 3.5430739 -0.67562288
0.36174828 3.5430739 -0.67562288
0.37527156 3.5430739 -0.67562288
0.38203323 3.5430739 -0.67562288
-0.49522939 3.5817304 -0.67615038
-0.4849833 3.5817304 -0.67615038
-0.42009115 3.5817304 -0.67615038
0.013661501 3.5817304 -0.67615038
0.023907626 3.5817304 -0.67615038
0.054646004 3.5817304 -0.67615038
0.078553632 3.5817304 -0.67615038
0.085384384 3.5817304 -0.67615038
0.095630504 3.5817304 -0.67615038
0.33129141 3.5817304 -0.67615038
-0.5210464 3.6224208 -0.6734671
-0.51414508 3.6236572 -0.67024565
-0.50264293 3.622833 -0.67239332
-0.49344125 3.6224208 -0.6734671
-0.48653999 3.6224208 -0.6734671
-0.47618806 3.6224208 -0.6734671
-0.46583617 3.6224208 -0.6734671
-0.45433402 3.622833 -0.67239332
-0.44513234 3.6224208 -0.6734671
-0.43478042 3.6224208 -0.67346716
-0.42442849 3.6224208 -0.6734671
-0.4140766 3.6224208 -0.6734671
-0.40372467 3.6224208 -0.6734671
-0.39682341 3.6224208 -0.6734671
-0.38992211 3.6236572 -0.67024565
-0.33471191 3.6224208 -0.6734671
-0.32436001 3.6224208 -0.67346716
-0.31400809 3.6224208 -0.6734671
-0.30480638 3.6220086 -0.67454094
-0.29330426 3.6211841 -0.67668855
-0.25189659 3.6236572 -0.67024565
-0.24499531 3.6224208 -0.6734671
-0.23579361 3.6220086 -0.67454094
-0.22429149 3.6224208 -0.6734671
-0.21508978 3.622833 -0.67239332
-0.14492682 3.6211841 -0.67668855
-0.13457489 3.6224208 -0.6734671
-0.12422297 3.6224208 -0.6734671
-0.11387106 3.6224208 -0.6734671
-0.10351914 3.6224208 -0.67346716
-0.09316723 3.6224208 -0.6734671
-0.086265959 3.6236572 -0.67024565
-0.07591404 3.6236572 -0.67024565
-0.065562129 3.6236572 -0.67024565
-0.054060001 3.622833 -0.67239332
-0.044858295 3.6236572 -0.67024565
-0.034506381 3.6224208 -0.67346716
-0.024154468 3.6224208 -0.6734671
-0.013802553 3.6224208 -0.67346716
-0.0034506381 3.6224208 -0.6734671
0.0034506381 3.6224208 -0.6734671
0.051759575 3.6236572 -0.67024565
-0.53345531 3.6627095 -0.67398274
-0.52648205 3.663959 -0.67072773
-0.51950878 3.663959 -0.67072773
-0.50556225 3.663959 -0.67072773
-0.38236776 3.6622932 -0.67506772
-0.37307006 3.6627095 -0.67398274
-0.36609679 3.6627095 -0.67398274
-0.35563686 3.6627097 -0.67398274
-0.34517696 3.6627095 -0.67398274
-0.33471707 3.663959 -0.67072773
-0.3103106 3.663959 -0.67072773
-0.30333734 3.6627095 -0.67398274
-0.29636407 3.6627095 -0.67398274
-0.28590417 3.6627095 -0.67398274
-0.27544424 3.6627095 -0.67398274
-0.26498434 3.6627097 -0.67398274
-0.23360461 3.6627095 -0.67398274
-0.2126848 3.663959 -0.67072773
-0.20571153 3.6627095 -0.67398274
-0.19525161 3.6627095 -0.67398274
-0.18479171 3.6627095 -0.67398274
-0.1743318 3.6627095 -0.67398274
-0.1638719 3.6627095 -0.67398274
-0.15689862 3.6627095 -0.67398274
-0.14643872 3.6627097 -0.67398274
-0.5686335 3.3982861 -0.66754693
0.25325373 3.5091889 -0.66469032
0.36481926 3.5087891 -0.66573185
0.38490105 3.5087891 -0.66573185
0.39494196 3.5087891 -0.66573185
0.40498284 3.5087891 -0.66573185
0.41502374 3.5087891 -0.66573185
-0.50374293 3.5454972 -0.66931033
-0.49698126 3.5454972 -0.66931033
0.034935191 3.5463047 -0.66720611
0.043950725 3.5467086 -0.66615403
0.064235672 3.5467086 -0.66615403
0.07325121 3.5471125 -0.66510195
0.084520623 3.5479202 -0.66299778
0.094663098 3.5479202 -0.66299778
0.10480557 3.5467086 -0.66615403
0.11494805 3.5467086 -0.66615403
0.12509052 3.5467086 -0.66615403
0.135233 3.5467086 -0.66615403
0.14537548 3.5467086 -0.66615403
0.1566449 3.5463047 -0.66720611
0.16566043 3.5467086 -0.66615403
0.17580289 3.5467086 -0.66615403
0.18594538 3.5467086 -0.66615403
0.19608784 3.5467086 -0.66615403
0.20623033 3.5467086 -0.66615403
0.21637279 3.5467086 -0.66615403
0.22651528 3.5467086 -0.66615403
0.23327692 3.5467086 -0.66615403
0.24003857 3.5467086 -0.66615403
0.27384683 3.5467086 -0.66615403
0.28398931 3.5454972 -0.66931033
0.29413179 3.5454972 -0.66931033
0.30427426 3.5467086 -0.66615403
0.31441674 3.5467086 -0.66615403
0.32117838 3.5454972 -0.66931033
0.34484416 3.5454972 -0.66931033
0.35498661 3.5454972 -0.66931033
0.37527156 3.5467086 -0.66615403
0.38203323 3.5467086 -0.66615403
-0.50547552 3.5841782 -0.66977334
0.01479996 3.5849943 -0.66764766
0.023907626 3.5854023 -0.66658485
0.033015292 3.5858104 -0.66552198
0.044399876 3.5866263 -0.6633963
0.055784464 3.5849943 -0.66764766
0.32446066 3.5841782 -0.66977334
0.33129141 3.5854023 -0.66658485
-0.50724381 3.6261306 -0.6638028
-0.49344125 3.6261306 -0.6638028
-0.48653999 3.6261306 -0.6638028
-0.47618806 3.6261306 -0.6638028
-0.46583617 3.6261306 -0.6638028
-0.45548424 3.6261306 -0.6638028
-0.44513234 3.6261306 -0.6638028
-0.43478042 3.6261306 -0.6638028
-0.42442849 3.6261306 -0.6638028
-0.4140766 3.6261306 -0.6638028
-0.40372467 3.6261306 -0.6638028
-0.39682341 3.6261306 -0.6638028
-0.38647148 3.6261306 -0.6638028
-0.32090935 3.6261306 -0.6638028
-0.31400809 3.6261306 -0.6638028
-0.25189659 3.6261306 -0.6638028
-0.24499531 3.6261306 -0.6638028
-0.23809403 3.6261306 -0.6638028
-0.22429149 3.6261306 -0.6638028
-0.21739021 3.6261306 -0.6638028
-0.13457489 3.6261306 -0.6638028
-0.12422298 3.6261306 -0.6638028
-0.11387106 3.6261306 -0.6638028
-0.10351915 3.6261306 -0.6638028
-0.09316723 3.6261306 -0.6638028
-0.086265959 3.6261306 -0.6638028
-0.07591404 3.6261306 -0.6638028
-0.065562129 3.6261306 -0.6638028
-0.05521021 3.6261306 -0.6638028
-0.044858295 3.6261306 -0.6638028
-0.034506381 3.6261306 -0.6638028
-0.024154468 3.6261306 -0.6638028
-0.013802553 3.6261306 -0.6638028
-0.0034506381 3.6261306 -0.6638028
0.0034506381 3.6261306 -0.6638028
-0.53345531 3.6664581 -0.66421765
-0.52648205 3.6664581 -0.66421765
-0.51950878 3.6664581 -0.66421765
-0.38004333 3.6664581 -0.66421765
-0.37307006 3.6664581 -0.66421765
-0.35215023 3.6664581 -0.66421765
-0.34517696 3.6664581 -0.66421765
-0.33471707 3.6664581 -0.66421765
-0.3103106 3.6664581 -0.66421765
-0.30333734 3.6664581 -0.66421765
-0.29636407 3.6664581 -0.66421765
-0.2893908 3.6664581 -0.66421765
-0.24406452 3.6664581 -0.66421765
-0.23360461 3.6664581 -0.66421765
-0.22663134 3.6664581 -0.66421765
-0.21617144 3.6664581 -0.66421765
-0.20571153 3.6664581 -0.66421765
-0.19525161 3.6664581 -0.66421765
-0.18479171 3.6664581 -0.66421765
-0.1743318 3.6664581 -0.66421765
-0.1638719 3.6664581 -0.66421765
-0.15689862 3.6664581 -0.66421765
-0.14643872 3.6664581 -0.66421765
-0.1359788 3.6664581 -0.66421765
0.017076876 3.5890741 -0.6570192
0.023907626 3.5890741 -0.6570192
0.030738376 3.5890741 -0.6570192
0.044399876 3.5890741 -0.6570192
0.054646004 3.5890741 -0.6570192
0.064892128 3.5890741 -0.6570192
-0.50379318 3.6286037 -0.65735984
-0.49344125 3.6286037 -0.65735984
-0.48653999 3.6286037 -0.65735984
-0.47618806 3.6286037 -0.65735984
-0.46583617 3.6286037 -0.65735984
-0.45548424 3.6286037 -0.65735984
-0.44513234 3.6286037 -0.65735984
-0.43478042 3.6286037 -0.65735984
-0.42442849 3.6286037 -0.65735984
-0.4140766 3.6286037 -0.65735984
-0.40372467 3.6286037 -0.65735984
-0.39682341 3.6286037 -0.65735984
-0.38647148 3.6286037 -0.65735984
-0.36231703 3.6286037 -0.65735984
-0.35541573 3.6286037 -0.65735984
-0.32090935 3.6286037 -0.65735984
-0.31400809 3.6286037 -0.65735984
-0.27605104 3.6286037 -0.65735984
-0.26569915 3.6286037 -0.65735984
-0.25534722 3.6286037 -0.65735984
-0.12422298 3.6286037 -0.65735984
-0.11387106 3.6286037 -0.65735984
-0.10351915 3.6286037 -0.65735984
-0.09316723 3.6286037 -0.65735984
-0.086265959 3.6286037 -0.65735984
