# .PCD v0.7 - Point Cloud Data file format
VERSION 0.7
FIELDS x y z
SIZE 4 4 4
TYPE F F F
COUNT 1 1 1
WIDTH 1430
HEIGHT 1
VIEWPOINT 0 0 0 1 0 0 0
POINTS 1430
DATA ascii
-0.6023193 3.0587816 -0.55703604
-0.60174108 3.0867105 -0.55919021
-0.60354108 3.1472769 -0.5552457
-0.59457761 3.1483476 -0.55245632
-0.59391344 3.1778383 -0.554627
-0.59323698 3.2078655 -0.55683726
-0.58411026 3.2078655 -0.55683726
-0.59323698 3.2100458 -0.55115688
-0.58715254 3.2100458 -0.55115688
-0.58333743 3.2395442 -0.55622154
-0.58333743 3.2417445 -0.55048901
-0.57945138 3.2718091 -0.55559444
-0.5754925 3.3046775 -0.5549553
-0.57145864 3.3381665 -0.55430406
-0.570535 3.3711507 -0.55661583
-0.55778563 3.3700085 -0.55959153
-0.56637543 3.4070764 -0.5529635
-0.55672133 3.4059231 -0.55596781
-0.57513213 3.4425354 -0.55227333
-0.5621348 3.4425354 -0.55227333
-0.55563617 3.441371 -0.55530685
-0.54913747 3.4402065 -0.55834037
-0.55452955 3.477514 -0.5546329
-0.54577953 3.477906 -0.55361181
-0.54235488 3.5147686 -0.5529142
0.043079104 3.5155604 -0.5508517
0.20876797 3.5155604 -0.5508517
0.21539553 3.5155604 -0.5508517
0.22533685 3.5143728 -0.55394542
0.23527819 3.5143728 -0.55394542
0.24521953 3.5143728 -0.55394536
0.25516087 3.5143728 -0.55394542
0.26510218 3.5143728 -0.55394542
0.27504352 3.5155604 -0.5508517
0.28498486 3.5155604 -0.5508517
0.2949262 3.5155604 -0.5508517
0.30486751 3.5143728 -0.55394542
0.31480885 3.5155604 -0.5508517
0.32475019 3.5143728 -0.55394542
0.33469152 3.5143728 -0.55394542
0.34463283 3.5143728 -0.55394536
0.35457417 3.5143728 -0.55394542
0.36451551 3.5143728 -0.55394542
0.37445685 3.5143728 -0.55394542
0.38439816 3.5143728 -0.55394536
0.3943395 3.5143728 -0.55394542
0.4053854 3.5147686 -0.5529142
-0.67198271 2.92712 -0.54419935
-0.6645472 2.927453 -0.54333168
-0.70294565 2.9537764 -0.54353052
-0.69451034 2.9527686 -0.54615557
-0.68607497 2.9527686 -0.54615557
-0.66076893 2.9537764 -0.54353052
-0.65514535 2.9537764 -0.54353052
-0.64671004 2.9537761 -0.54353052
-0.63546288 2.9537764 -0.54353052
-0.62421578 2.9547839 -0.54090548
-0.62100798 2.9798682 -0.54549736
-0.62384367 2.9819007 -0.54020274
-0.62060511 3.0074313 -0.54482794
-0.62019509 3.0344357 -0.54683971
-0.61442584 3.0344357 -0.54683971
-0.60577196 3.0344357 -0.54683971
-0.6023193 3.0619102 -0.54888654
-0.5964998 3.062953 -0.54617
-0.60055327 3.1515598 -0.54408818
-0.59457761 3.1515598 -0.54408818
-0.59391344 3.1821599 -0.54336882
-0.59323698 3.2122264 -0.54547656
-0.58715254 3.2122264 -0.54547656
-0.58333743 3.2439451 -0.54475641
-0.57945138 3.2751403 -0.54691589
-0.5754925 3.3080397 -0.54619551
-0.57145864 3.3415608 -0.54546154
-0.570535 3.3757198 -0.54471326
-0.56315738 3.4093831 -0.54695487
-0.56637543 3.4116895 -0.5409463
-0.57513213 3.4471934 -0.54013926
-0.5621348 3.4460287 -0.54317284
-0.55563617 3.4460287 -0.54317284
-0.55452955 3.4810417 -0.54544306
-0.54796702 3.4810417 -0.54544306
-0.5401457 3.5179355 -0.54466432
-0.53351814 3.5179355 -0.54466432
0.04639288 3.5179355 -0.54466432
0.056334216 3.5179355 -0.54466432
0.20876797 3.5179355 -0.54466432
0.21539553 3.5179355 -0.54466432
0.22533685 3.5179355 -0.54466432
0.23527819 3.5179355 -0.54466432
0.24521953 3.5179355 -0.54466432
0.25516087 3.5179355 -0.54466432
0.26510218 3.5179355 -0.54466432
0.27504352 3.5179355 -0.54466432
0.28498486 3.5179355 -0.54466432
0.2949262 3.5179355 -0.54466432
0.30486751 3.5179355 -0.54466432
0.31480885 3.5179355 -0.54466432
0.32475019 3.5179355 -0.54466432
0.33469152 3.5179355 -0.54466432
0.34463283 3.5179355 -0.54466432
0.35457417 3.5179355 -0.54466432
0.36451551 3.5179355 -0.54466432
0.37445685 3.5179355 -0.54466432
0.38439816 3.5179355 -0.54466432
0.3943395 3.5179355 -0.54466432
0.40428084 3.5179355 -0.54466432
0.41422218 3.5179355 -0.54466432
0.013387863 3.5555675 -0.54387009
0.02342876 3.5555675 -0.54387009
0.030122692 3.5555675 -0.54387009
0.073633246 3.5555675 -0.54387009
0.08367414 3.5555675 -0.54387009
0.093715042 3.5555675 -0.54387009
0.10375594 3.5555675 -0.54387009
0.11379683 3.5555675 -0.54387009
0.12383773 3.5555675 -0.54387009
0.13387862 3.5555675 -0.54387009
0.14391953 3.5555675 -0.54387009
0.15396042 3.5555675 -0.54387009
0.17738917 3.5555675 -0.54387009
0.1840831 3.5555675 -0.54387009
0.2142058 3.5555675 -0.54387009
0.2242467 3.5555675 -0.54387009
-0.38541406 3.5927486 -0.54621577
-0.37527156 3.5927486 -0.54621577
-0.36512908 3.5927486 -0.54621577
-0.35498661 3.5927486 -0.54621577
-0.34484416 3.5927486 -0.54621577
-0.33470166 3.5927486 -0.54621577
-0.32455921 3.5927486 -0.54621577
-0.31441674 3.5927486 -0.54621577
-0.30427426 3.5927486 -0.54621577
-0.29413179 3.5927486 -0.54621577
-0.28398931 3.5927489 -0.54621571
-0.27384683 3.5927486 -0.54621577
-0.26370436 3.5927489 -0.54621571
-0.25356188 3.5927486 -0.54621577
-0.24454635 3.5931523 -0.54516369
-0.23327692 3.5939603 -0.54305947
-0.22651528 3.5939603 -0.54305947
-0.21637279 3.5927486 -0.54621577
-0.20623033 3.5927486 -0.54621577
-0.19608784 3.5927489 -0.54621571
-0.18594538 3.5927486 -0.54621577
-0.17580289 3.5927486 -0.54621577
-0.16566043 3.5927486 -0.54621577
-0.15551795 3.5927486 -0.54621577
-0.14537548 3.5927486 -0.54621577
-0.13185218 3.5915372 -0.54937202
-0.12509052 3.5927486 -0.54621577
-0.11494805 3.5927489 -0.54621571
-0.10480557 3.5927486 -0.54621577
-0.094663098 3.5927486 -0.54621577
-0.084520623 3.5927486 -0.54621577
-0.074378148 3.5927486 -0.54621577
-0.064235672 3.5927486 -0.54621577
-0.054093197 3.5927489 -0.54621571
-0.043950725 3.5927486 -0.54621577
-0.03380825 3.5927486 -0.54621577
-0.023665775 3.5927486 -0.54621577
-0.013523299 3.5927486 -0.54621577
-0.003380825 3.5927486 -0.54621577
0.003380825 3.5927486 -0.54621577
-0.50547552 3.6319127 -0.54542077
-0.49522939 3.6319127 -0.54542077
-0.48612174 3.6323206 -0.54435796
-0.46449104 3.6331367 -0.54223222
-0.45424491 3.6331367 -0.54223222
-0.44286034 3.6323206 -0.54435796
-0.43375266 3.6319127 -0.54542077
-0.4235065 3.6319127 -0.54542077
-0.4132604 3.6319127 -0.54542077
-0.40642965 3.6319127 -0.54542077
-0.3995989 3.6319127 -0.54542077
-0.53484893 3.6718845 -0.54460919
-0.52449703 3.6718848 -0.54460919
-0.70294571 2.9567993 -0.5356555
-0.62702757 2.9567993 -0.5356555
-0.63235062 2.9839332 -0.53490812
-0.62384367 2.9839332 -0.53490812
-0.62060511 3.0094812 -0.53948802
-0.62060511 3.0115309 -0.53414804
-0.61488527 3.0115309 -0.53414804
-0.60630548 3.0115309 -0.53414804
-0.60288733 3.0385709 -0.53606761
-0.59711808 3.0385709 -0.53606761
-0.5964998 3.0671239 -0.53530407
-0.59587044 3.0961778 -0.534527
-0.60055327 3.1558428 -0.53293061
-0.59457761 3.1558428 -0.53293061
-0.59391344 3.185401 -0.53492516
-0.59323698 3.215497 -0.53695607
-0.58715254 3.215497 -0.53695607
-0.59254807 3.2483461 -0.53329134
-0.58436084 3.2468793 -0.53711307
-0.58564878 3.2784719 -0.53823721
-0.57945138 3.2784719 -0.53823721
-0.58564878 3.2806928 -0.53245151
-0.57945138 3.2806928 -0.53245151
-0.59113091 3.3136442 -0.53159583
-0.58487552 3.3136442 -0.53159583
-0.5754925 3.3125234 -0.53451574
-0.5735634 3.3464639 -0.53268886
-0.570535 3.3791466 -0.53578639
-0.56315738 3.413996 -0.53493768
-0.57513213 3.4495223 -0.53407228
-0.5621348 3.4495223 -0.53407228
-0.55563617 3.4495223 -0.53407228
-0.55452955 3.4833934 -0.53931642
-0.54468578 3.4845693 -0.53625309
-0.53484207 3.4857452 -0.53318977
-0.5282796 3.4857452 -0.53318977
0.33468646 3.4857452 -0.53318977
0.036451552 3.5214982 -0.53538334
0.046392884 3.5214982 -0.53538334
0.056334216 3.5214982 -0.53538334
0.062961772 3.5203106 -0.538477
0.16568887 3.5203106 -0.538477
0.1888853 3.5203106 -0.538477
0.19551286 3.5214982 -0.53538334
0.20214042 3.5214982 -0.53538334
0.22865063 3.5214982 -0.53538334
0.23527819 3.5214982 -0.53538334
0.24521953 3.5214982 -0.53538334
0.25516087 3.5214982 -0.53538334
0.26510218 3.5214982 -0.53538334
0.27504352 3.5214982 -0.53538334
0.28498486 3.5214982 -0.53538334
0.2949262 3.5214982 -0.53538334
0.30486751 3.5214982 -0.53538334
0.31480885 3.5214982 -0.53538334
0.32364559 3.5211022 -0.53641456
0.34794661 3.5214982 -0.53538334
0.35457417 3.5214982 -0.53538334
0.36451551 3.5214982 -0.53538334
0.37445685 3.5214982 -0.53538334
0.38439816 3.5214982 -0.53538334
0.3943395 3.5214982 -0.53538334
0.40428084 3.5214982 -0.53538334
0.41422218 3.5203106 -0.538477
0.013387863 3.5579662 -0.53762072
0.02342876 3.5579662 -0.53762072
0.030122692 3.5579662 -0.53762072
0.063592345 3.5579662 -0.53762072
0.073633246 3.5579662 -0.53762072
0.08367414 3.5579662 -0.53762072
0.093715042 3.5579662 -0.53762072
0.10375594 3.5579662 -0.53762072
0.11379683 3.5579662 -0.53762072
0.12383773 3.5579662 -0.53762072
0.13387862 3.5579662 -0.53762072
0.14391953 3.5579662 -0.53762072
0.15396042 3.5579662 -0.53762072
0.16400132 3.5579662 -0.53762072
0.17404221 3.5579662 -0.53762072
0.1840831 3.5579662 -0.53762072
0.19077705 3.5579662 -0.53762072
0.2142058 3.5579662 -0.53762072
0.2242467 3.5579662 -0.53762072
-0.27110422 3.5603652 -0.53137141
-0.056898415 3.5603652 -0.53137141
0.013387863 3.5603652 -0.53137141
0.02342876 3.5603652 -0.53137141
0.030122692 3.5603652 -0.53137141
0.076980211 3.5603652 -0.53137141
0.08367414 3.5603652 -0.53137141
0.09036807 3.5603652 -0.53137141
0.10375594 3.5603652 -0.53137141
0.11379683 3.5603652 -0.53137141
0.12383773 3.5603652 -0.53137141
0.13387862 3.5603652 -0.53137141
0.14391953 3.5603652 -0.53137141
0.15396042 3.5603652 -0.53137141
0.16400132 3.5603652 -0.53137141
0.17404221 3.5603652 -0.53137141
0.1840831 3.5603652 -0.53137141
0.19077705 3.5603652 -0.53137141
0.2142058 3.5603652 -0.53137141
0.2242467 3.5603652 -0.53137141
0.23094063 3.5603652 -0.53137141
0.40498284 3.5603652 -0.53137141
-0.38541406 3.597595 -0.53359061
-0.37527156 3.5975952 -0.53359061
-0.36512908 3.5975952 -0.53359061
-0.35498661 3.5975952 -0.53359061
-0.34484416 3.5975952 -0.53359061
-0.33470166 3.5975952 -0.53359061
-0.32455918 3.5975952 -0.53359061
-0.31441674 3.5975952 -0.53359061
-0.30427426 3.597595 -0.53359061
-0.29413179 3.5975952 -0.53359061
-0.28398931 3.5975952 -0.53359061
-0.26370436 3.5975952 -0.53359061
-0.25356188 3.5975952 -0.53359061
-0.24341941 3.5975952 -0.53359061
-0.23327692 3.5975952 -0.53359061
-0.22651528 3.5963836 -0.53674686
-0.21524584 3.5971916 -0.5346427
-0.20623033 3.5975952 -0.53359061
-0.19608784 3.5975952 -0.53359061
-0.18594538 3.5975952 -0.53359061
-0.17580289 3.5975952 -0.53359061
-0.16566043 3.5975952 -0.53359061
-0.1566449 3.5971916 -0.5346427
-0.14537548 3.5963836 -0.53674686
-0.13410605 3.5971916 -0.5346427
-0.12509052 3.5975952 -0.53359061
-0.11494805 3.5975952 -0.53359061
-0.10480557 3.5975952 -0.53359061
-0.094663098 3.5975952 -0.53359061
-0.084520623 3.5975952 -0.53359061
-0.074378148 3.5975952 -0.53359061
-0.064235672 3.5975952 -0.53359061
-0.052966256 3.5979989 -0.53253853
-0.043950725 3.5975952 -0.53359061
-0.03380825 3.5975952 -0.53359061
-0.023665775 3.5975952 -0.53359061
-0.013523299 3.5975952 -0.53359061
-0.003380825 3.5975952 -0.53359061
0.003380825 3.5975952 -0.53359061
0.095790036 3.5979989 -0.53253853
0.10480557 3.5988066 -0.53043437
0.11494805 3.5988066 -0.53043437
0.13861382 3.5988066 -0.53043437
0.14537548 3.5988066 -0.53043437
-0.50547552 3.6355846 -0.53585517
-0.49522939 3.6355846 -0.53585517
-0.4849833 3.6355846 -0.53585517
-0.47473717 3.6355846 -0.53585517
-0.46449104 3.6355846 -0.53585517
-0.45424491 3.6355846 -0.53585517
-0.44399878 3.6355846 -0.53585517
-0.43375266 3.6355846 -0.53585517
-0.42350653 3.6355846 -0.53585517
-0.4132604 3.6355846 -0.53585517
-0.40642965 3.6355846 -0.53585517
-0.3995989 3.6355846 -0.53585517
-0.22541477 3.6355846 -0.53585517
-0.54520082 3.6755943 -0.53494483
-0.53484893 3.6755943 -0.53494483
-0.52449703 3.6755943 -0.53494483
-0.5964998 3.0712948 -0.52443814
-0.59587044 3.0993335 -0.52630591
-0.60174108 3.1014373 -0.52082521
-0.59587044 3.1014373 -0.52082521
-0.60055327 3.159055 -0.52456248
-0.59457761 3.159055 -0.52456248
-0.59391344 3.1886423 -0.52648151
-0.59323698 3.2187679 -0.52843547
-0.59323698 3.2209482 -0.52275515
-0.59254807 3.251647 -0.52469254
-0.58640766 3.2505467 -0.5275588
-0.59184611 3.2829137 -0.52666581
-0.59425855 3.315886 -0.52575594
-0.58487552 3.315886 -0.52575594
-0.5786202 3.315886 -0.52575594
-0.57461584 3.3494809 -0.52482873
-0.570535 3.3825731 -0.5268594
-0.56530279 3.41784 -0.52492338
-0.5621348 3.4530156 -0.52497172
-0.55563617 3.4530156 -0.52497172
-0.54697126 3.4534037 -0.52396053
-0.54140455 3.488097 -0.52706319
-0.53484207 3.488097 -0.52706319
-0.5282796 3.488097 -0.52706319
0.32484275 3.488097 -0.52706319
0.33468646 3.488097 -0.52706319
-0.54140455 3.490449 -0.52093661
-0.53484207 3.490449 -0.52093661
-0.5282796 3.490449 -0.52093661
0.036451552 3.5250609 -0.5261023
0.04639288 3.5250609 -0.5261023
0.056334216 3.5250609 -0.5261023
0.066275552 3.5250609 -0.5261023
0.19551286 3.5250609 -0.5261023
0.20214042 3.5250609 -0.5261023
0.23527819 3.5250609 -0.5261023
0.24521953 3.5250609 -0.5261023
0.25516087 3.5250609 -0.5261023
0.26510218 3.5250609 -0.5261023
0.27504352 3.5250609 -0.5261023
0.28498486 3.5250609 -0.5261023
0.2949262 3.5250609 -0.5261023
0.30486751 3.5250609 -0.5261023
0.31480885 3.5250609 -0.5261023
0.32475019 3.5250609 -0.5261023
0.33469152 3.5250609 -0.5261023
0.34463283 3.5250609 -0.5261023
0.35457417 3.5250609 -0.5261023
0.36451551 3.5250609 -0.5261023
0.37445685 3.5250609 -0.5261023
0.38439816 3.5250609 -0.5261023
0.3943395 3.5250609 -0.5261023
0.40759462 3.5250609 -0.5261023
-0.27110422 3.5627642 -0.52512205
-0.15061346 3.5627642 -0.52512205
-0.14391953 3.5627642 -0.52512205
-0.1372256 3.5627642 -0.52512205
0.013387863 3.5627642 -0.52512205
0.02342876 3.5627642 -0.52512205
0.030122692 3.5627642 -0.52512205
0.12383773 3.5627642 -0.52512205
0.13053165 3.5627642 -0.52512205
0.15396042 3.5627642 -0.52512205
0.16400132 3.5627642 -0.52512205
0.17404221 3.5627642 -0.52512205
0.1840831 3.5627642 -0.52512205
0.19412401 3.5627642 -0.52512205
0.20416491 3.5627642 -0.52512205
0.2142058 3.5627642 -0.52512205
0.2242467 3.5627642 -0.52512205
0.23428759 3.5627642 -0.52512205
0.38490105 3.5627642 -0.52512205
0.40498284 3.5627642 -0.52512205
0.41502374 3.5627642 -0.52512205
-0.48345798 3.6012297 -0.52412182
-0.47669631 3.6012297 -0.52412182
-0.46317303 3.6012297 -0.52412182
-0.45641136 3.6012297 -0.52412182
-0.44626892 3.6012297 -0.52412182
-0.43612641 3.6012297 -0.52412182
-0.42598397 3.6012297 -0.52412182
-0.41584146 3.6012297 -0.52412182
-0.40569901 3.6012297 -0.52412182
-0.39555651 3.6012297 -0.52412182
-0.38541406 3.6012297 -0.52412182
-0.37527156 3.6012297 -0.52412182
-0.36512911 3.6012297 -0.52412182
-0.35498661 3.6012297 -0.52412182
-0.34484416 3.6012297 -0.52412182
-0.33470166 3.6012297 -0.52412182
-0.32455921 3.6012297 -0.52412182
-0.31441674 3.6012297 -0.52412182
-0.30427426 3.6012297 -0.52412182
-0.29413179 3.6012297 -0.52412182
-0.28398931 3.6012297 -0.52412182
-0.27384683 3.6012297 -0.52412182
-0.26370436 3.6012297 -0.52412182
-0.25356188 3.6012297 -0.52412182
-0.24341941 3.6012297 -0.52412182
-0.23327692 3.6012297 -0.52412182
-0.21299197 3.6012297 -0.52412182
-0.19608784 3.6012297 -0.52412182
-0.18594538 3.6012297 -0.52412182
-0.17242207 3.6012297 -0.52412182
-0.16566043 3.6012297 -0.52412182
-0.15889877 3.6012297 -0.52412182
-0.13185218 3.6012297 -0.52412182
-0.12509052 3.6012297 -0.52412182
-0.11156722 3.6012297 -0.52412182
-0.10480557 3.6012297 -0.52412182
-0.094663098 3.6012297 -0.52412182
-0.084520623 3.6012297 -0.52412182
-0.074378148 3.6012297 -0.52412182
-0.064235672 3.6012297 -0.52412182
-0.054093197 3.6012297 -0.52412182
-0.043950725 3.6012297 -0.52412182
-0.03380825 3.6012297 -0.52412182
-0.023665775 3.6012297 -0.52412182
-0.013523299 3.6012297 -0.52412182
-0.003380825 3.6012297 -0.52412182
0.003380825 3.6012297 -0.52412182
0.084520623 3.6012297 -0.52412182
0.094663098 3.6012297 -0.52412182
0.10480557 3.6012297 -0.52412182
0.11156722 3.6012297 -0.52412182
0.12509052 3.6012297 -0.52412182
0.135233 3.6012297 -0.52412182
0.14537548 3.6012297 -0.52412182
0.15551795 3.6012297 -0.52412182
0.21637279 3.6012297 -0.52412182
0.22651528 3.6012297 -0.52412182
0.23327692 3.6012297 -0.52412182
-0.50547552 3.6380324 -0.52947813
-0.49522939 3.6380324 -0.52947813
-0.47473717 3.6380324 -0.52947813
-0.22541477 3.6380324 -0.52947813
-0.20833789 3.6380324 -0.52947813
-0.18101488 3.6380324 -0.52947813
0.11953814 3.6380324 -0.52947813
-0.53621393 3.6404805 -0.52310103
-0.52596784 3.6404805 -0.52310103
-0.51572168 3.6404805 -0.52310103
-0.50547552 3.6404805 -0.52310103
-0.49522939 3.6404805 -0.52310103
-0.22541477 3.6404805 -0.52310103
-0.21516864 3.6404805 -0.52310103
-0.20492251 3.6404805 -0.52310103
-0.19467638 3.6404805 -0.52310103
-0.18443026 3.6404805 -0.52310103
-0.030738376 3.6404805 -0.52310103
-0.023907626 3.6404805 -0.52310103
-0.017076876 3.6404805 -0.52310103
-0.0034153752 3.6404805 -0.52310103
0.11612276 3.6404805 -0.52310103
0.15369189 3.6404805 -0.52310103
0.16052264 3.6404805 -0.52310103
0.17418414 3.6404805 -0.52310103
0.18443026 3.6404805 -0.52310103
0.14492682 3.6780677 -0.52850193
-0.23119277 3.6805408 -0.52205902
-0.22429149 3.6805408 -0.52205902
-0.21393958 3.6805408 -0.52205902
-0.18288383 3.6805408 -0.52205902
-0.031055745 3.6805408 -0.52205902
-0.024154468 3.6805408 -0.52205902
-0.01725319 3.6805408 -0.52205902
-0.0034506381 3.6805408 -0.52205902
0.10696979 3.6805408 -0.52205902
0.11387106 3.6805408 -0.52205902
0.12422298 3.6805408 -0.52205902
0.15527873 3.6805408 -0.52205902
0.17598255 3.6805408 -0.52205902
0.18288383 3.6805408 -0.52205902
0.31400809 3.6805408 -0.52205902
0.32436001 3.6805408 -0.52205902
0.33471191 3.6805408 -0.52205902
0.34161317 3.6805408 -0.52205902
0.35541573 3.6805408 -0.52205902
0.40372467 3.6805408 -0.52205902
0.14643872 3.7189369 -0.52750528
-0.3103106 3.721436 -0.5209952
-0.24057789 3.721436 -0.5209952
-0.23360461 3.721436 -0.5209952
-0.22663134 3.721436 -0.5209952
-0.21617144 3.721436 -0.5209952
-0.12203226 3.721436 -0.5209952
-0.034866363 3.721436 -0.5209952
-0.024406452 3.721436 -0.5209952
-0.013946544 3.721436 -0.5209952
-0.0034866361 3.721436 -0.5209952
0.11505899 3.721436 -0.5209952
0.12203226 3.721436 -0.5209952
0.1359788 3.721436 -0.5209952
0.14643872 3.721436 -0.5209952
0.15689862 3.721436 -0.5209952
0.31728387 3.721436 -0.5209952
0.32425717 3.721436 -0.5209952
0.33471707 3.721436 -0.5209952
0.34517696 3.721436 -0.5209952
0.3591235 3.721436 -0.5209952
-0.13317321 3.8468208 -0.52438563
-0.12597467 3.8468208 -0.52438563
-0.60055327 3.1622672 -0.5161944
-0.59457761 3.1611965 -0.51898378
-0.59692824 3.1929641 -0.51522338
-0.59323698 3.2242191 -0.5142346
-0.59254807 3.256048 -0.51322746
-0.59184611 3.2873557 -0.5150944
-0.59113091 3.3181276 -0.51991612
-0.58487552 3.3181276 -0.51991612
-0.5786202 3.3181276 -0.51991612
-0.59425855 3.3203695 -0.51407623
-0.58487552 3.3203695 -0.51407623
-0.58408755 3.3517439 -0.51893371
-0.57461584 3.3528755 -0.5159862
-0.570535 3.3871422 -0.51495683
-0.56637543 3.4220686 -0.51390755
-0.5621348 3.4565089 -0.51587117
-0.55563617 3.4565089 -0.51587117
-0.54588813 3.4565089 -0.51587117
-0.56109202 3.4928007 -0.51481003
-0.54468578 3.4928007 -0.51481003
-0.53484207 3.4928007 -0.51481003
-0.53351814 3.527436 -0.51991493
-0.52689058 3.527436 -0.51991493
0.02651022 3.5298111 -0.51372761
0.036451552 3.5286236 -0.51682127
0.04639288 3.5286236 -0.51682127
0.056334216 3.5286236 -0.51682127
0.066275552 3.5286236 -0.51682127
0.076216877 3.5286236 -0.51682127
0.082844436 3.527436 -0.51991493
0.24521953 3.527436 -0.51991493
0.25516087 3.527436 -0.51991493
0.26399758 3.5282278 -0.51785249
0.27504352 3.5286236 -0.51682127
0.28498486 3.5286236 -0.51682127
0.2949262 3.5286236 -0.51682127
0.3059721 3.5282278 -0.51785249
0.31480885 3.527436 -0.51991493
0.32475019 3.5286236 -0.51682127
0.33469152 3.5286236 -0.51682127
0.34463283 3.5286236 -0.51682127
0.35457417 3.527436 -0.51991493
0.36451551 3.5286236 -0.51682127
0.37445685 3.5286236 -0.51682127
0.38771194 3.527436 -0.51991493
0.3943395 3.527436 -0.51991493
-0.15061346 3.5651631 -0.51887274
-0.14391953 3.5663624 -0.51574808
-0.1372256 3.5663624 -0.51574808
-0.11714379 3.5651631 -0.51887274
0.013387863 3.5663624 -0.51574808
0.073633246 3.5675619 -0.51262343
0.08367414 3.5675619 -0.51262343
0.16400132 3.5651631 -0.51887274
0.17404221 3.5651631 -0.51887274
0.1840831 3.5651631 -0.51887274
0.19412401 3.5651631 -0.51887274
0.20416491 3.5651631 -0.51887274
0.23763457 3.5663624 -0.51574808
0.2443285 3.5663624 -0.51574808
0.25436938 3.5663624 -0.51574808
0.26441029 3.5675619 -0.51262343
0.27333555 3.5667622 -0.51470655
0.29787993 3.5675619 -0.51262343
0.30457386 3.5663624 -0.51574808
0.31573042 3.5667622 -0.51470655
0.32465568 3.5675619 -0.51262343
0.33469659 3.5675619 -0.51262343
0.34473747 3.5675619 -0.51262343
0.35477835 3.5663624 -0.51574808
0.37486017 3.5675619 -0.51262343
0.38490105 3.5651631 -0.51887274
0.39494193 3.5651631 -0.51887274
0.40498284 3.5651631 -0.51887274
0.41167676 3.5651631 -0.51887274
-0.53078949 3.606076 -0.51149672
-0.48345798 3.6048646 -0.51465297
-0.47669631 3.6048646 -0.51465297
-0.46655387 3.6048646 -0.51465303
-0.45641136 3.6048646 -0.51465297
-0.44626889 3.6048646 -0.51465303
-0.43612641 3.6048646 -0.51465297
-0.42598397 3.6048646 -0.51465297
-0.41584146 3.6048646 -0.51465297
-0.40569901 3.6048646 -0.51465303
-0.39555651 3.6048646 -0.51465297
-0.38541403 3.6048646 -0.51465297
-0.37527156 3.6048646 -0.51465297
-0.36512911 3.6048646 -0.51465297
-0.35498661 3.6048646 -0.51465297
-0.34484416 3.6048646 -0.51465303
-0.33470166 3.6048646 -0.51465297
-0.32568613 3.6044607 -0.51570505
-0.31441674 3.603653 -0.51780927
-0.30427426 3.603653 -0.51780927
-0.29413179 3.603653 -0.51780927
-0.28286237 3.6044607 -0.51570505
-0.27384683 3.6048646 -0.51465297
-0.26370436 3.6048646 -0.51465303
-0.25356188 3.6048646 -0.51465297
-0.24341941 3.6048646 -0.51465297
-0.23327692 3.603653 -0.51780927
-0.17242207 3.6048646 -0.51465297
-0.16566043 3.603653 -0.51780927
-0.15551795 3.603653 -0.51780927
-0.13185218 3.6048646 -0.51465297
-0.12509052 3.603653 -0.51780927
-0.11494805 3.603653 -0.51780927
-0.10480557 3.603653 -0.51780927
-0.094663098 3.603653 -0.51780927
-0.084520623 3.603653 -0.51780927
-0.074378148 3.603653 -0.51780927
-0.064235672 3.603653 -0.51780927
-0.054093197 3.603653 -0.51780927
-0.043950725 3.603653 -0.51780927
-0.037189074 3.603653 -0.51780927
-0.010142474 3.603653 -0.51780927
0.003380825 3.603653 -0.51780927
0.010142474 3.606076 -0.51149672
0.095790036 3.6044607 -0.51570505
0.10480557 3.603653 -0.51780927
0.12509052 3.603653 -0.51780927
0.13185218 3.6048646 -0.51465297
0.16566043 3.603653 -0.51780927
0.19721478 3.6044607 -0.51570511
0.20623033 3.6048646 -0.51465297
0.21637279 3.603653 -0.51780927
0.22651528 3.6048646 -0.51465297
0.23327692 3.6048646 -0.51465297
0.24341941 3.606076 -0.51149672
0.25356188 3.606076 -0.51149672
0.30089343 3.606076 -0.51149672
0.38879487 3.603653 -0.51780927
0.39555651 3.603653 -0.51780927
0.40569901 3.603653 -0.51780927
-0.53621393 3.6453762 -0.51034695
-0.52596784 3.6441522 -0.5135355
-0.51572168 3.6441522 -0.5135355
-0.50547552 3.6441522 -0.51353544
-0.49522939 3.6441522 -0.5135355
-0.42350653 3.6453762 -0.51034695
-0.40642965 3.6453762 -0.51034695
-0.39276814 3.6453762 -0.51034695
-0.38593739 3.6453762 -0.51034695
-0.37569126 3.6453762 -0.51034695
-0.33129141 3.6453762 -0.51034695
-0.32446066 3.6441522 -0.5135355
-0.31421453 3.6429284 -0.51672399
-0.3039684 3.6429284 -0.51672399
-0.29372227 3.6429284 -0.51672399
-0.2356609 3.6429284 -0.51672399
-0.20150714 3.6429284 -0.51672399
-0.19467638 3.6429284 -0.51672399
-0.18784563 3.6429284 -0.51672399
-0.13319963 3.6453762 -0.51034695
-0.12636888 3.6429284 -0.51672399
-0.11612276 3.6429284 -0.51672399
-0.10587663 3.6429284 -0.51672399
-0.095630504 3.6429284 -0.51672399
-0.085384384 3.6441522 -0.5135355
-0.075138256 3.6429284 -0.51672399
-0.064892128 3.6429284 -0.51672399
-0.054646004 3.6429284 -0.51672399
-0.044399876 3.6429284 -0.51672399
-0.037569128 3.6429284 -0.51672399
-0.010246126 3.6429284 -0.51672399
0.0034153752 3.6429284 -0.51672399
0.16393802 3.6429284 -0.51672399
0.18784563 3.6429284 -0.51672399
0.19467638 3.6441522 -0.5135355
0.20492251 3.6453762 -0.51034695
0.21516864 3.6441522 -0.5135355
0.2242763 3.6445601 -0.51247263
0.2356609 3.6453762 -0.51034695
0.24249165 3.6453762 -0.51034695
0.2903069 3.6453762 -0.51034695
0.35861439 3.6429284 -0.51672399
0.37569126 3.6453762 -0.51034695
0.38593739 3.6429284 -0.51672399
0.39276814 3.6429284 -0.51672399
0.40642965 3.6429284 -0.51672399
-0.32090935 3.6830139 -0.51561612
-0.31400809 3.6830139 -0.51561612
-0.30020553 3.6830139 -0.51561612
-0.29330426 3.6830139 -0.51561612
-0.28640297 3.6830139 -0.51561612
-0.20358765 3.6830139 -0.51561612
-0.19668637 3.6830139 -0.51561612
-0.18633446 3.6830139 -0.51561612
-0.17598255 3.6830139 -0.51561612
-0.12767361 3.6830139 -0.51561612
-0.11387106 3.6830139 -0.51561612
-0.10351915 3.6830139 -0.51561612
-0.09316723 3.6830139 -0.51561612
-0.07591404 3.6830139 -0.51561612
-0.065562129 3.6830139 -0.51561612
-0.05521021 3.6830139 -0.51561612
-0.044858295 3.6830139 -0.51561612
0.0034506381 3.6830139 -0.51561612
0.010351915 3.6830139 -0.51561612
0.09316723 3.6830139 -0.51561612
0.10351915 3.6830139 -0.51561612
0.12767361 3.6830139 -0.51561612
0.16563064 3.6830139 -0.51561612
0.17598255 3.6830139 -0.51561612
0.18633446 3.6830139 -0.51561612
0.25534722 3.6830139 -0.51561612
0.30365616 3.6830139 -0.51561612
0.34851447 3.6830139 -0.51561612
0.36576766 3.6830139 -0.51561612
0.38992211 3.6830139 -0.51561612
0.39682341 3.6830139 -0.51561612
0.40372467 3.6830139 -0.51561612
-0.33123043 3.7239349 -0.51448512
-0.32425717 3.7239349 -0.51448512
-0.31379724 3.7239349 -0.51448512
-0.30333734 3.7239349 -0.51448512
-0.29636407 3.7239349 -0.51448512
-0.2893908 3.7239349 -0.51448512
-0.19525161 3.7239349 -0.51448512
-0.18479171 3.7239349 -0.51448512
-0.17781843 3.7239349 -0.51448512
-0.15689862 3.7239349 -0.51448512
-0.14992535 3.7239349 -0.51448512
-0.10111245 3.7239349 -0.51448512
-0.094139174 3.7239349 -0.51448512
-0.0871659 3.7239349 -0.51448512
-0.034866363 3.7239349 -0.51448512
-0.024406452 3.7239349 -0.51448512
-0.013946544 3.7239349 -0.51448512
-0.0034866361 3.7239349 -0.51448512
0.0034866361 3.7239349 -0.51448512
0.010459908 3.7239349 -0.51448512
0.0871659 3.7239349 -0.51448512
0.094139174 3.7239349 -0.51448512
0.10459907 3.7239349 -0.51448512
0.11505899 3.7239349 -0.51448512
0.12203226 3.7239349 -0.51448512
0.1359788 3.7239349 -0.51448512
0.14295208 3.7239349 -0.51448512
0.15689862 3.7239349 -0.51448512
0.1638719 3.7239349 -0.51448512
0.17084517 3.7239349 -0.51448512
0.31379724 3.7239349 -0.51448512
0.3382037 3.7239349 -0.51448512
0.34517696 3.7239349 -0.51448512
0.35563686 3.7239349 -0.51448512
0.36609679 3.7239349 -0.51448512
0.40444979 3.7239349 -0.51448512
-0.32415205 3.7657177 -0.51333004
-0.31358188 3.7657177 -0.51333004
-0.30653509 3.7657177 -0.51333004
-0.29596493 3.7657177 -0.51333004
-0.28539476 3.7657177 -0.51333004
-0.27482456 3.7657177 -0.51333004
-0.25250974 3.7648761 -0.51552296
-0.24311405 3.7644551 -0.51661938
-0.23606727 3.7631924 -0.51990873
-0.22432263 3.7640343 -0.51771587
-0.21492691 3.7631924 -0.51990873
-0.20553119 3.7648761 -0.51552296
-0.1761696 3.7657177 -0.51333004
-0.16559942 3.7657177 -0.51333004
-0.14445907 3.7644551 -0.51661938
-0.13506337 3.7640343 -0.51771587
-0.12331872 3.7631924 -0.51990873
-0.11627194 3.7631924 -0.51990873
-0.10570175 3.7644551 -0.51661938
-0.095131584 3.7657177 -0.51333004
-0.088084802 3.7657177 -0.51333004
-0.05285088 3.7657177 -0.51333004
-0.045804095 3.7657177 -0.51333004
-0.035233922 3.7657177 -0.51333004
-0.024663744 3.7657177 -0.51333004
-0.014093568 3.7657177 -0.51333004
-0.0035233919 3.7657177 -0.51333004
0.0035233919 3.7657177 -0.51333004
0.010570176 3.7657177 -0.51333004
0.13741229 3.7657177 -0.51333004
0.14445907 3.7657177 -0.51333004
0.15385479 3.7648761 -0.51552296
0.16559942 3.7657177 -0.51333004
0.17264621 3.7657177 -0.51333004
0.32767546 3.7644551 -0.51661938
0.33472225 3.7631924 -0.51990873
-0.25282604 3.8083901 -0.51215023
-0.24570419 3.8083901 -0.51215023
-0.2350214 3.8071141 -0.51547468
-0.22433861 3.8083901 -0.51215023
-0.2148428 3.8075392 -0.51436651
-0.20297302 3.8083901 -0.51215023
-0.19585116 3.8058379 -0.51879907
-0.18516837 3.8071141 -0.51547468
-0.17448558 3.8083901 -0.51215023
-0.11394977 3.8058379 -0.51879907
-0.10326698 3.8083901 -0.51215023
-0.096145116 3.8083901 -0.51215023
-0.089023255 3.8083901 -0.51215023
-0.064096741 3.8083901 -0.51215023
-0.046292093 3.8083901 -0.51215023
-0.032048371 3.8083901 -0.51215023
-0.19436091 3.8494008 -0.51766527
-0.16556671 3.8494008 -0.51766527
-0.15476887 3.8494008 -0.51766527
-0.14397106 3.8494008 -0.51766527
-0.13317321 3.8494008 -0.51766527
-0.11517684 3.8494008 -0.51766527
-0.24475077 3.8519804 -0.51094484
-0.23395294 3.8519804 -0.51094484
-0.2267544 3.8519804 -0.51094484
-0.21955584 3.8519804 -0.51094484
-0.19436091 3.8519804 -0.51094484
-0.16556671 3.8519804 -0.51094484
-0.15476887 3.8519804 -0.51094484
-0.11157756 3.8519804 -0.51094484
-0.10437901 3.8519804 -0.51094484
-0.097180456 3.8519804 -0.51094484
-0.086382627 3.8519804 -0.51094484
-0.061187692 3.8519804 -0.51094484
-0.14553824 3.8939109 -0.51650661
-0.13462286 3.8939109 -0.51650661
-0.1237075 3.8939109 -0.51650661
-0.59804344 3.2895765 -0.5093087
-0.59804344 3.2917974 -0.50352299
-0.59425855 3.3237319 -0.50531638
-0.58487552 3.3237319 -0.50531638
-0.5786202 3.3237319 -0.50531638
-0.5735634 3.357024 -0.50517857
-0.570535 3.3917112 -0.50305426
-0.56637543 3.4255283 -0.50489461
-0.5621348 3.458838 -0.50980413
-0.54913747 3.458838 -0.50980413
-0.5621348 3.4611669 -0.50373709
-0.55563617 3.4611669 -0.50373709
-0.54913747 3.4611669 -0.50373709
-0.54468578 3.4963284 -0.50562012
-0.53484207 3.4963284 -0.50562012
-0.52609211 3.4967203 -0.50459903
0.02651022 3.5333738 -0.50444651
0.036451552 3.5333738 -0.50444651
0.04639288 3.5333738 -0.50444651
0.056334216 3.5333738 -0.50444651
0.062961772 3.5321863 -0.50754023
0.28498486 3.5321863 -0.50754023
0.35457417 3.5321863 -0.50754023
0.36120173 3.5321863 -0.50754023
-0.16400132 3.5699608 -0.50637406
-0.15396042 3.5699608 -0.50637406
-0.14391953 3.5699608 -0.50637406
-0.1372256 3.5699608 -0.50637406
0.016734829 3.5699608 -0.50637406
0.063592345 3.5699608 -0.50637406
0.073633246 3.5699608 -0.50637406
0.08367414 3.5699608 -0.50637406
0.09036807 3.5699608 -0.50637406
0.25771636 3.5699608 -0.50637406
0.26441029 3.5699608 -0.50637406
0.2744512 3.5699608 -0.50637406
0.28449208 3.5699608 -0.50637406
0.291186 3.5699608 -0.50637406
0.33804354 3.5699608 -0.50637406
0.35812533 3.5699608 -0.50637406
0.36481926 3.5699608 -0.50637406
0.37151319 3.5699608 -0.50637406
-0.14391953 3.5723598 -0.50012481
0.02342876 3.5723598 -0.50012481
0.030122692 3.5723598 -0.50012481
0.043510552 3.5723598 -0.50012481
0.056898415 3.5723598 -0.50012481
0.063592345 3.5723598 -0.50012481
0.073633246 3.5723598 -0.50012481
0.08367414 3.5723598 -0.50012481
-0.48345798 3.6084993 -0.50518417
-0.47669631 3.6084993 -0.50518417
-0.46655387 3.6084993 -0.50518417
-0.45641136 3.6084993 -0.50518417
-0.44626892 3.6084993 -0.50518417
-0.43612641 3.6084993 -0.50518417
-0.42936477 3.6084993 -0.50518417
-0.40907982 3.6084993 -0.50518417
-0.39555651 3.6084993 -0.50518417
-0.36174828 3.6084993 -0.50518417
-0.35498661 3.6084993 -0.50518417
-0.34484416 3.6084993 -0.50518417
-0.33470166 3.6084993 -0.50518417
-0.27384683 3.6084993 -0.50518417
-0.26370436 3.6084993 -0.50518417
-0.24341941 3.6084993 -0.50518417
-0.16566043 3.6084993 -0.50518417
-0.15551795 3.6084993 -0.50518417
-0.13861382 3.6084993 -0.50518417
0.016904125 3.6084993 -0.50518417
0.26370436 3.6084993 -0.50518417
0.27384683 3.6084993 -0.50518417
0.28060848 3.6084993 -0.50518417
-0.52255243 3.6478243 -0.50396991
-0.51572168 3.6478243 -0.50396991
-0.50547552 3.6478243 -0.50396991
-0.49522939 3.6478243 -0.50396991
-0.46107566 3.6478243 -0.50396991
-0.45424491 3.6478243 -0.50396991
-0.44058341 3.6478243 -0.50396991
-0.43375266 3.6478243 -0.50396991
-0.42009115 3.6478243 -0.50396991
-0.4132604 3.6478243 -0.50396991
-0.40642965 3.6478243 -0.50396991
-0.39618352 3.6478243 -0.50396991
-0.38593739 3.6478243 -0.50396991
-0.37569126 3.6478243 -0.50396991
-0.36544514 3.6478243 -0.50396991
-0.35519901 3.6478243 -0.50396991
-0.34495291 3.6478243 -0.50396991
-0.33470678 3.6478243 -0.50396991
0.20833789 3.6478243 -0.50396991
0.26981464 3.6478243 -0.50396991
-0.52449703 3.6879604 -0.50273037
-0.51414508 3.6879604 -0.50273037
-0.50379318 3.6879604 -0.50273037
-0.43132979 3.6854873 -0.50917327
-0.4140766 3.6879604 -0.50273037
-0.40372467 3.6879604 -0.50273037
-0.39682341 3.6879604 -0.50273037
-0.38302085 3.6879604 -0.50273037
-0.37611955 3.6879604 -0.50273037
-0.36576766 3.6879604 -0.50273037
-0.35541573 3.6879604 -0.50273037
-0.34506381 3.6879604 -0.50273037
-0.33471191 3.6879604 -0.50273037
-0.16563064 3.6854873 -0.50917327
-0.07591404 3.6854873 -0.50917327
-0.065562129 3.6854873 -0.50917327
-0.05521021 3.6854873 -0.50917327
-0.044858295 3.6854873 -0.50917327
0.07936468 3.6854873 -0.50917327
0.12767361 3.6854873 -0.50917327
0.17598255 3.6854873 -0.50917327
0.18748468 3.6863117 -0.50702566
0.19668637 3.6867237 -0.50595182
0.20358765 3.6867237 -0.50595182
0.21508978 3.6871359 -0.50487798
0.22429149 3.6867237 -0.50595182
0.2346434 3.6867237 -0.50595182
0.24499531 3.6867237 -0.50595182
0.25534722 3.6854873 -0.50917327
0.26569915 3.6854873 -0.50917327
0.27950171 3.6854873 -0.50917327
0.28640297 3.6854873 -0.50917327
0.29330426 3.6854873 -0.50917327
0.30020553 3.6854873 -0.50917327
0.36921829 3.6854873 -0.50917327
0.37611955 3.6854873 -0.50917327
0.38532126 3.6863117 -0.50702566
-0.43582949 3.7276835 -0.50471997
-0.42653179 3.7280998 -0.50363493
-0.41490969 3.7289329 -0.5014649
-0.40096316 3.7289329 -0.5014649
-0.39398986 3.726434 -0.50797498
-0.34517696 3.7289329 -0.5014649
-0.33123043 3.726434 -0.50797498
-0.15689862 3.726434 -0.50797498
-0.14992535 3.726434 -0.50797498
-0.080192626 3.726434 -0.50797498
-0.073219359 3.726434 -0.50797498
-0.066246085 3.726434 -0.50797498
-0.059272811 3.726434 -0.50797498
0.073219359 3.726434 -0.50797498
0.083679259 3.726434 -0.50797498
0.094139174 3.726434 -0.50797498
0.10576129 3.727267 -0.50580496
0.11505899 3.7276835 -0.50471997
0.1266811 3.727267 -0.50580496
0.17781843 3.7276835 -0.50471997
0.18479171 3.7276835 -0.50471997
0.19176498 3.7289329 -0.5014649
0.24406452 3.7289329 -0.5014649
0.25452444 3.7276835 -0.50471997
0.26498434 3.7276835 -0.50471997
0.27544424 3.7276835 -0.50471997
0.28590417 3.7276833 -0.50471997
0.29636407 3.7276835 -0.50471997
0.30333734 3.7276835 -0.50471997
0.31379724 3.726434 -0.50797498
0.3358793 3.727267 -0.50580496
0.34517696 3.7276835 -0.50471997
0.35447466 3.727267 -0.50580496
0.36609679 3.7276835 -0.50471997
0.37307006 3.7276835 -0.50471997
0.38236776 3.7280998 -0.50363493
0.39398986 3.726434 -0.50797498
0.40096316 3.726434 -0.50797498
-0.39461988 3.7682431 -0.5067513
-0.38404974 3.7682431 -0.5067513
-0.37700295 3.7682431 -0.5067513
-0.36643279 3.7682431 -0.5067513
-0.35586259 3.7682431 -0.5067513
-0.34176901 3.7682431 -0.5067513
-0.33472225 3.7682431 -0.5067513
-0.32415205 3.7682431 -0.5067513
-0.31358188 3.7682431 -0.5067513
-0.30653509 3.7682431 -0.5067513
-0.29596493 3.7682431 -0.5067513
-0.28539476 3.7682431 -0.5067513
-0.27482456 3.7682431 -0.5067513
-0.26425439 3.7682431 -0.5067513
-0.2572076 3.7682431 -0.5067513
-0.081038013 3.7682431 -0.5067513
-0.073991232 3.7682431 -0.5067513
-0.05285088 3.7682431 -0.5067513
-0.038757313 3.7682431 -0.5067513
-0.024663744 3.7682431 -0.5067513
-0.014093568 3.7682431 -0.5067513
-0.0035233919 3.7682431 -0.5067513
0.0035233919 3.7682431 -0.5067513
0.014093568 3.7682431 -0.5067513
0.059897665 3.7682431 -0.5067513
0.06694445 3.7682431 -0.5067513
0.073991232 3.7682431 -0.5067513
0.084561408 3.7682431 -0.5067513
0.095131584 3.7682431 -0.5067513
0.10217836 3.7682431 -0.5067513
0.12331872 3.7682431 -0.5067513
0.13741229 3.7682431 -0.5067513
0.14445907 3.7682431 -0.5067513
0.15502925 3.7682431 -0.5067513
0.16559942 3.7682431 -0.5067513
0.17264621 3.7682431 -0.5067513
0.31358188 3.7682431 -0.5067513
0.32415205 3.7682431 -0.5067513
0.33472225 3.7682431 -0.5067513
0.36290938 3.7682431 -0.5067513
0.39814329 3.7682431 -0.5067513
-0.46508777 3.7707684 -0.50017256
-0.45451757 3.7707684 -0.50017256
-0.44747078 3.7707684 -0.50017256
-0.43337721 3.7707684 -0.50017256
-0.42633045 3.7707684 -0.50017256
-0.41928366 3.7707684 -0.50017256
-0.27834797 3.7707684 -0.50017256
0.014093568 3.7707684 -0.50017256
0.024663744 3.7707684 -0.50017256
0.035233922 3.7707684 -0.50017256
0.045804095 3.7707684 -0.50017256
0.056374274 3.7707684 -0.50017256
0.06694445 3.7707684 -0.50017256
0.084561408 3.7707684 -0.50017256
0.095131584 3.7707684 -0.50017256
0.10217836 3.7707684 -0.50017256
0.13741229 3.7707684 -0.50017256
0.14445907 3.7707684 -0.50017256
0.15502925 3.7707684 -0.50017256
0.16559942 3.7707684 -0.50017256
0.17264621 3.7707684 -0.50017256
0.18673977 3.7707684 -0.50017256
0.27834797 3.7707684 -0.50017256
0.28539476 3.7707684 -0.50017256
0.29244155 3.7707684 -0.50017256
0.30653509 3.7707684 -0.50017256
0.31358188 3.7707684 -0.50017256
0.32415205 3.7707684 -0.50017256
0.33472225 3.7707684 -0.50017256
0.34529239 3.7707684 -0.50017256
0.35586259 3.7707684 -0.50017256
0.36290938 3.7707684 -0.50017256
0.37700295 3.7707684 -0.50017256
0.38404974 3.7707684 -0.50017256
0.39461988 3.7707684 -0.50017256
-0.44511628 3.8109424 -0.50550139
-0.40594605 3.8109424 -0.50550139
-0.39526325 3.8109424 -0.50550139
-0.38458046 3.8109424 -0.50550139
-0.37389767 3.8109424 -0.50550139
-0.36677581 3.8109424 -0.50550139
-0.35609302 3.8109424 -0.50550139
-0.34541023 3.8109424 -0.50550139
-0.33472744 3.8109424 -0.50550139
-0.32404464 3.8109424 -0.50550139
-0.31692278 3.8109424 -0.50550139
-0.30623999 3.8109424 -0.50550139
-0.2955572 3.8109424 -0.50550139
-0.28843534 3.8109424 -0.50550139
-0.25638697 3.8109424 -0.50550139
-0.21009488 3.8109424 -0.50550139
-0.20297302 3.8109424 -0.50550139
-0.18160744 3.8109424 -0.50550139
-0.17448558 3.8109424 -0.50550139
-0.074779533 3.8109424 -0.50550139
-0.067657672 3.8109424 -0.50550139
-0.053413954 3.8109424 -0.50550139
-0.046292093 3.8109424 -0.50550139
-0.035609301 3.8109424 -0.50550139
-0.024926512 3.8109424 -0.50550139
-0.01424372 3.8109424 -0.50550139
-0.0035609303 3.8109424 -0.50550139
0.0035609303 3.8109424 -0.50550139
0.074779533 3.8109424 -0.50550139
-0.47510445 3.8545601 -0.50422436
-0.46430662 3.8545601 -0.50422436
-0.45710805 3.8545601 -0.50422436
-0.3491298 3.8545601 -0.50422436
-0.32393485 3.8545601 -0.50422436
-0.27714425 3.8545601 -0.50422436
-0.26274717 3.8545601 -0.50422436
-0.2555486 3.8545601 -0.50422436
-0.24475077 3.8545601 -0.50422436
-0.23395294 3.8545601 -0.50422436
-0.2267544 3.8545601 -0.50422436
-0.21595657 3.8545601 -0.50422436
-0.20515874 3.8545601 -0.50422436
-0.19436091 3.8545601 -0.50422436
-0.17636453 3.8545601 -0.50422436
-0.16196743 3.8545601 -0.50422436
-0.11157756 3.8545601 -0.50422436
-0.10437901 3.8545601 -0.50422436
-0.097180456 3.8545601 -0.50422436
-0.086382627 3.8545601 -0.50422436
-0.075584799 3.8545601 -0.50422436
-0.068386249 3.8545601 -0.50422436
-0.4693608 3.8991265 -0.5029195
-0.25105345 3.8991265 -0.5029195
-0.24377653 3.8991265 -0.5029195
-0.22194581 3.8991265 -0.5029195
-0.21466888 3.8991265 -0.5029195
-0.20375353 3.8991265 -0.5029195
-0.17343307 3.8982573 -0.50518399
-0.1637305 3.8991265 -0.5029195
-0.15645359 3.8978226 -0.5063163
-0.14553824 3.8978226 -0.5063163
-0.13462286 3.8978226 -0.5063163
-0.1237075 3.8978224 -0.50631624
-0.57461584 3.3607955 -0.49535352
-0.570535 3.3951378 -0.49412733
-0.56637543 3.427835 -0.49888605
-0.56959349 3.4301414 -0.49287742
-0.56538415 3.4646602 -0.49463657
-0.55563617 3.4646602 -0.49463657
-0.54913747 3.4646602 -0.49463657
-0.54468578 3.499856 -0.49643016
-0.53484207 3.499856 -0.49643016
-0.52499837 3.499856 -0.49643016
-0.54468578 3.5022078 -0.49030358
-0.53484207 3.5022078 -0.49030358
-0.52499837 3.5022078 -0.49030358
0.036451552 3.5369363 -0.49516553
0.04970666 3.5369363 -0.49516553
-0.52547359 3.5747585 -0.49387544
0.02342876 3.5747585 -0.49387544
0.030122692 3.5747585 -0.49387544
0.056898415 3.5747585 -0.49387544
0.063592345 3.5747585 -0.49387544
0.070286281 3.5747585 -0.49387544
-0.53078949 3.6133456 -0.49255913
-0.52402788 3.612134 -0.49571538
-0.48345798 3.6109223 -0.49887162
-0.47669631 3.612134 -0.49571538
-0.46655387 3.6109223 -0.49887162
-0.45641136 3.6133456 -0.49255913
-0.44288808 3.6109223 -0.49887162
-0.24680023 3.6109223 -0.49887162
0.016904125 3.6109223 -0.49887162
0.054093197 3.6133456 -0.49255913
0.064235672 3.6133456 -0.49255913
-0.52255243 3.65272 -0.49121583
-0.48839867 3.6502721 -0.49759287
-0.47473717 3.6502721 -0.49759287
-0.46562949 3.6519039 -0.49334154
-0.45424491 3.6514959 -0.49440435
-0.44399878 3.6502721 -0.49759287
-0.43375266 3.6514959 -0.49440435
-0.5210464 3.6904335 -0.49628741
-0.51414508 3.6904335 -0.49628741
-0.50379318 3.6904335 -0.49628741
-0.49344125 3.6904335 -0.49628741
-0.45203361 3.6904335 -0.49628741
-0.44513234 3.6904335 -0.49628741
-0.40372467 3.6904335 -0.49628741
0.19668637 3.6904335 -0.49628741
0.20358765 3.6904335 -0.49628741
0.21393958 3.6904335 -0.49628741
0.22429149 3.6904335 -0.49628741
0.23119277 3.6904335 -0.49628741
-0.47069585 3.731432 -0.49495471
-0.40793642 3.731432 -0.49495471
0.10808571 3.731432 -0.49495471
0.11505899 3.731432 -0.49495471
0.1255189 3.731432 -0.49495471
0.17781843 3.731432 -0.49495471
0.19525161 3.731432 -0.49495471
0.23360461 3.731432 -0.49495471
0.24406452 3.731432 -0.49495471
0.25452444 3.731432 -0.49495471
0.26498434 3.731432 -0.49495471
0.29636407 3.731432 -0.49495471
0.36609679 3.731432 -0.49495471
-0.47565791 3.7732937 -0.49359381
-0.42633045 3.7732937 -0.49359381
-0.41576028 3.7732937 -0.49359381
0.014093568 3.7732937 -0.49359381
0.038757313 3.7732937 -0.49359381
0.045804095 3.7732937 -0.49359381
0.081038013 3.7732937 -0.49359381
0.10922515 3.7732937 -0.49359381
0.11627194 3.7732937 -0.49359381
0.12331872 3.7732937 -0.49359381
0.1338889 3.7732937 -0.49359381
0.14445907 3.7732937 -0.49359381
0.15502925 3.7732937 -0.49359381
0.16559942 3.7732937 -0.49359381
0.1761696 3.7732937 -0.49359381
0.18673977 3.7732937 -0.49359381
0.26425439 3.7732937 -0.49359381
0.27482456 3.7732937 -0.49359381
0.28539476 3.7732937 -0.49359381
0.29244155 3.7732937 -0.49359381
0.30653509 3.7732937 -0.49359381
0.32415205 3.7732937 -0.49359381
0.33472225 3.7732937 -0.49359381
0.34529239 3.7732937 -0.49359381
0.35586259 3.7732937 -0.49359381
0.36290938 3.7732937 -0.49359381
0.37700295 3.7732937 -0.49359381
0.38404974 3.7732937 -0.49359381
0.39461988 3.7732937 -0.49359381
-0.44511628 3.8134947 -0.49885255
-0.43443349 3.8147707 -0.49552816
-0.4237507 3.8160467 -0.49220377
-0.41662884 3.8160467 -0.49220377
-0.40594605 3.8134947 -0.49885255
-0.39526325 3.8134947 -0.49885255
-0.38458046 3.8134947 -0.49885255
-0.37389767 3.8134947 -0.49885255
-0.36677581 3.8134947 -0.49885255
-0.35609302 3.8134947 -0.49885255
-0.33472744 3.8134947 -0.49885255
-0.30505303 3.8143454 -0.4966363
-0.2955572 3.8147707 -0.49552816
-0.28487441 3.8147707 -0.49552816
-0.26706976 3.8147707 -0.49552816
-0.18160744 3.8134947 -0.49885255
-0.060535815 3.8134947 -0.49885255
-0.053413954 3.8134947 -0.49885255
-0.046292093 3.8134947 -0.49885255
-0.035609301 3.8134947 -0.49885255
-0.024926512 3.8147707 -0.49552816
-0.01424372 3.8147707 -0.49552816
-0.0035609303 3.8147707 -0.49552816
0.0035609303 3.8147707 -0.49552816
0.024926512 3.8134947 -0.49885255
0.032048371 3.8134947 -0.49885255
0.053413954 3.8147707 -0.49552816
0.064096741 3.8147707 -0.49552816
0.074779533 3.8147707 -0.49552816
0.086649299 3.815196 -0.49442005
0.096145116 3.8147707 -0.49552816
0.10326698 3.8147707 -0.49552816
0.15312 3.8160467 -0.49220377
0.16380279 3.8160467 -0.49220377
0.17448558 3.8160467 -0.49220377
0.28843534 3.8160467 -0.49220377
0.2955572 3.8160467 -0.49220377
0.30267906 3.8147707 -0.49552816
0.31692278 3.8134947 -0.49885255
-0.48590228 3.8597195 -0.49078351
-0.47510445 3.8571398 -0.497504
-0.45710805 3.8571398 -0.497504
-0.44511047 3.8579998 -0.49526381
-0.43551239 3.8597195 -0.49078351
-0.42471457 3.8597195 -0.49078351
-0.41391674 3.8584297 -0.49414375
-0.40671819 3.8571398 -0.497504
-0.39592037 3.8584297 -0.49414375
-0.38512254 3.8571398 -0.497504
-0.37432474 3.8571398 -0.497504
-0.36352688 3.8571398 -0.497504
-0.35632834 3.8571398 -0.497504
-0.34553051 3.8571398 -0.497504
-0.33473268 3.8571398 -0.497504
-0.32393485 3.8584297 -0.49414372
-0.31313702 3.8584297 -0.49414375
-0.30593848 3.8597195 -0.49078351
-0.28434283 3.8597195 -0.49078351
-0.27714425 3.8584297 -0.49414375
-0.2651467 3.8588598 -0.49302366
-0.2555486 3.8571398 -0.497504
-0.23395294 3.8571398 -0.497504
-0.2267544 3.8584297 -0.49414375
-0.19076164 3.8571398 -0.497504
-0.18356308 3.8571398 -0.497504
-0.11157756 3.8584297 -0.49414375
-0.10437901 3.8584297 -0.49414375
-0.097180456 3.8584297 -0.49414375
-0.086382627 3.8584297 -0.49414375
-0.075584799 3.8584297 -0.49414375
-0.06598673 3.8579998 -0.49526381
-0.053989142 3.8584297 -0.49414375
-0.046790589 3.8584297 -0.49414375
-0.035992764 3.8584297 -0.49414372
-0.025194932 3.8597195 -0.49078351
-0.01799638 3.8597195 -0.49078351
-0.48391461 3.9017344 -0.49612588
-0.47663769 3.9017344 -0.49612588
-0.46572232 3.9017344 -0.49612588
-0.45480698 3.9017344 -0.49612588
-0.41114551 3.9017344 -0.49612588
-0.38567632 3.9017344 -0.49612588
-0.37476096 3.9017344 -0.49612588
-0.36384559 3.9017344 -0.49612588
-0.35293022 3.9017344 -0.49612588
-0.3456533 3.9017344 -0.49612588
-0.33837637 3.9017344 -0.49612588
-0.2546919 3.9017344 -0.49612588
-0.24377653 3.9017344 -0.49612588
-0.23649962 3.9017344 -0.49612588
-0.22194581 3.9017344 -0.49612588
-0.21466888 3.9017344 -0.49612588
-0.20375353 3.9017344 -0.49612588
-0.19283816 3.9017344 -0.49612588
-0.18556124 3.9017344 -0.49612588
-0.17464587 3.9017344 -0.49612588
-0.1637305 3.9017344 -0.49612588
-0.15645359 3.9017344 -0.49612588
-0.14553824 3.9017344 -0.49612588
-0.13462286 3.9017344 -0.49612588
-0.1237075 3.9017344 -0.49612588
-0.56538415 3.4681535 -0.48553604
-0.55563617 3.4681535 -0.48553604
-0.54913747 3.4681535 -0.48553604
-0.54140455 3.5045595 -0.48417699
-0.53484207 3.5045595 -0.48417699
-0.5282796 3.5045595 -0.48417699
-0.52689058 3.5393114 -0.48897815
0.036451552 3.5393114 -0.48897815
0.04639288 3.5393114 -0.48897815
-0.53351814 3.5416865 -0.48279077
-0.52689058 3.5416865 -0.48279077
0.043079104 3.5416865 -0.48279077
-0.5187797 3.5795565 -0.48137677
0.030122692 3.5795565 -0.48137677
-0.47669631 3.6157687 -0.48624653
-0.46993467 3.6157687 -0.48624653
0.043950725 3.6157687 -0.48624653
0.050712373 3.6157687 -0.48624653
-0.52449703 3.6929069 -0.48984456
-0.51414508 3.6941433 -0.48662311
-0.50379318 3.6929069 -0.48984456
-0.49344125 3.6929069 -0.48984456
-0.48653999 3.6941433 -0.48662311
-0.47618806 3.6929069 -0.48984456
0.20358765 3.6929069 -0.48984456
0.21393958 3.6929069 -0.48984456
0.22429149 3.6929069 -0.48984456
-0.53345531 3.7339311 -0.48844463
-0.52648205 3.7339311 -0.48844463
-0.51485991 3.7355969 -0.48410454
-0.50556225 3.7351804 -0.48518956
-0.49626455 3.7355969 -0.48410454
-0.48464242 3.7339311 -0.48844463
-0.47766915 3.7339311 -0.48844463
0.19525161 3.7339311 -0.48844463
0.20571153 3.7351804 -0.48518956
0.21617143 3.7351806 -0.48518956
0.22663134 3.7351804 -0.48518956
0.23360461 3.7351804 -0.48518956
0.24406452 3.7351804 -0.48518956
0.25452444 3.7351804 -0.48518956
0.26498434 3.7364299 -0.48193449
0.3382037 3.7364299 -0.48193449
0.34517696 3.7364299 -0.48193449
0.35215023 3.7364299 -0.48193449
0.36609679 3.7351804 -0.48518956
-0.50384504 3.7783444 -0.48043633
-0.49679828 3.7783444 -0.48043633
-0.48740256 3.7766609 -0.48482215
-0.47565791 3.7758191 -0.48701507
0.014093567 3.7770817 -0.48372567
0.024663744 3.7770817 -0.4837257
0.035233919 3.7770817 -0.4837257
0.045804095 3.7758191 -0.48701507
0.10922515 3.7770817 -0.4837257
0.11627194 3.7770817 -0.4837257
0.12331872 3.7770817 -0.4837257
0.13271444 3.7766609 -0.48482215
0.14445907 3.7758191 -0.48701507
0.179693 3.7770817 -0.4837257
0.18673977 3.7770817 -0.4837257
0.19378656 3.7770817 -0.4837257
0.20083335 3.7770817 -0.4837257
