# .PCD v0.7 - Point Cloud Data file format
VERSION 0.7
FIELDS x y z
SIZE 4 4 4
TYPE F F F
COUNT 1 1 1
WIDTH 1427
HEIGHT 1
VIEWPOINT 0 0 0 1 0 0 0
POINTS 1427
DATA ascii
0.40444979 3.7764139 -0.37777275
0.13457489 3.7398975 -0.36742949
0.28640297 3.7398975 -0.36742949
0.29330426 3.7398975 -0.36742949
0.30365616 3.7398975 -0.36742949
0.36576766 3.7398975 -0.36742949
0.37611955 3.7398975 -0.36742949
0.38647148 3.7398975 -0.36742949
0.39682341 3.7398975 -0.36742949
0.40372467 3.7398975 -0.36742949
0.27605104 3.7423706 -0.36098665
0.28640297 3.7423706 -0.36098665
0.29330426 3.7423706 -0.36098665
0.30365616 3.7423706 -0.36098665
0.33471191 3.7423706 -0.36098665
0.34161317 3.7423706 -0.36098665
0.35541573 3.7423706 -0.36098665
0.36576766 3.7423706 -0.36098665
0.37611955 3.7423706 -0.36098665
0.38647148 3.7423706 -0.36098665
0.39682341 3.7423706 -0.36098665
0.40372467 3.7423706 -0.36098665
0.013946544 3.7814119 -0.36475253
0.024406452 3.7814119 -0.36475253
0.034866363 3.7814119 -0.36475253
0.04532627 3.7814119 -0.36475253
0.055786178 3.7814119 -0.36475253
0.066246085 3.7814119 -0.36475253
0.073219359 3.7814119 -0.36475253
0.083679259 3.7814119 -0.36475253
0.094139174 3.7814119 -0.36475253
0.10459907 3.7814119 -0.36475253
0.11505899 3.7814119 -0.36475253
0.1255189 3.7814119 -0.36475253
0.1359788 3.7814119 -0.36475253
0.14643872 3.7814119 -0.36475253
0.15689862 3.7814119 -0.36475253
0.1638719 3.7814119 -0.36475253
0.1743318 3.7814119 -0.36475253
0.18479171 3.7814119 -0.36475253
0.19525161 3.7814119 -0.36475253
0.20571153 3.7814119 -0.36475253
0.21617144 3.7814119 -0.36475253
0.22663134 3.7814119 -0.36475253
0.23360461 3.7814119 -0.36475253
0.24406452 3.7814119 -0.36475253
0.25452444 3.7814119 -0.36475253
0.26498434 3.7814119 -0.36475253
0.31728387 3.7814119 -0.36475253
0.32425717 3.7814119 -0.36475253
0.33123043 3.7814119 -0.36475253
0.35215023 3.7814119 -0.36475253
-0.024663744 3.8238006 -0.362019
-0.014093568 3.8225379 -0.3653084
-0.0035233919 3.8225379 -0.3653084
0.0035233919 3.8225379 -0.3653084
-0.67740232 2.9478478 -0.35603696
-0.6664322 2.9478478 -0.35603696
-0.65546215 2.9478478 -0.35603696
-0.64723456 2.9478478 -0.35603696
-0.63717866 2.9481754 -0.35518351
-0.62803692 2.9478478 -0.35603696
-0.69407159 2.974236 -0.35382155
-0.68854111 2.974236 -0.35382155
-0.66641933 2.9732449 -0.35640311
-0.62586272 2.9745662 -0.35296103
-0.62179315 3.0000646 -0.35417223
-0.62140399 3.0253196 -0.35715371
-0.61296862 3.0263274 -0.35452873
-0.60966539 3.0530353 -0.35489106
-0.60630548 3.0812247 -0.35258973
-0.60481042 3.109211 -0.35204375
0.27260041 3.744844 -0.35454375
0.28640297 3.744844 -0.35454375
0.30365616 3.744844 -0.35454375
0.33471191 3.744844 -0.35454375
0.36921829 3.744844 -0.35454375
0.37611955 3.744844 -0.35454375
0.38647148 3.744844 -0.35454375
0.39682341 3.744844 -0.35454375
0.40372467 3.744844 -0.35454375
0.013946544 3.7851603 -0.35498735
0.024406452 3.7851605 -0.35498735
0.034866363 3.7851605 -0.35498735
0.04532627 3.7851605 -0.35498735
0.055786178 3.7851605 -0.35498732
0.066246085 3.7851605 -0.35498735
0.073219359 3.7851605 -0.35498735
0.083679259 3.7851603 -0.35498735
0.094139174 3.7851605 -0.35498735
0.10459908 3.7851605 -0.35498735
0.11505899 3.7851605 -0.35498735
0.1255189 3.7851605 -0.35498732
0.1359788 3.7851605 -0.35498735
0.14643872 3.7851603 -0.35498735
0.15689862 3.7851605 -0.35498735
0.1638719 3.7851605 -0.35498735
0.1743318 3.7851605 -0.35498732
0.18479171 3.7851605 -0.35498735
0.19525161 3.7851603 -0.35498735
0.20571153 3.7851605 -0.35498735
0.21617144 3.7851603 -0.35498735
0.22663134 3.7851605 -0.35498735
0.23360461 3.7851605 -0.35498735
0.24406452 3.7851603 -0.35498735
0.25452444 3.7851605 -0.35498735
0.26498434 3.7851605 -0.35498732
0.27544424 3.7864099 -0.35173231
0.28241751 3.7851605 -0.35498735
0.29636407 3.783911 -0.35824239
0.30333734 3.7864099 -0.35173231
0.31728387 3.783911 -0.35824239
0.32425717 3.783911 -0.35824239
0.33123043 3.7851605 -0.35498735
0.34517696 3.783911 -0.35824239
0.35563686 3.7851603 -0.35498735
0.36609679 3.7851605 -0.35498735
-0.15150586 3.8263259 -0.35544026
-0.14445907 3.8263259 -0.35544026
-0.045804095 3.8263259 -0.35544026
-0.035233922 3.8263259 -0.35544026
-0.024663744 3.8263259 -0.35544026
-0.014093568 3.8263259 -0.35544026
-0.0035233919 3.8263259 -0.35544026
0.0035233919 3.8263259 -0.35544026
-0.096145116 3.8683677 -0.3559027
-0.086649299 3.8679426 -0.35701084
-0.074779533 3.8670917 -0.35922712
-0.064096741 3.8670917 -0.35922712
-0.053413954 3.8683677 -0.3559027
-0.68562984 2.9527621 -0.34323519
-0.67465979 2.9517791 -0.34579554
-0.66368967 2.9517794 -0.34579554
-0.65546215 2.9517794 -0.34579554
-0.64723456 2.9517794 -0.34579557
-0.6362645 2.9517794 -0.34579557
-0.62803692 2.9517794 -0.34579554
-0.62494099 2.9781995 -0.34349537
-0.62179315 3.0030622 -0.34636289
-0.61621654 3.0030622 -0.34636289
-0.61296862 3.0293503 -0.34665364
-0.61296862 3.0313656 -0.3414036
-0.60966539 3.0560837 -0.34694913
-0.60916537 3.0842993 -0.34457973
-0.60577196 3.1119678 -0.34486228
-0.6023193 3.1390746 -0.34786624
-0.6023193 3.14116 -0.34243327
-0.60174108 3.1687605 -0.34544218
-0.60115254 3.1979113 -0.34573972
-0.60055327 3.2286532 -0.34325308
-0.59457761 3.2297239 -0.3404637
-0.5959233 3.2574279 -0.34728864
-0.58486903 3.2588685 -0.3435359
-0.58106804 3.2885432 -0.34666419
-0.58106804 3.2907238 -0.34098381
-0.57498354 3.2907238 -0.34098381
0.18288383 3.7497902 -0.341658
0.24499531 3.7497902 -0.341658
0.28640297 3.7485538 -0.34487942
0.29330426 3.7473171 -0.34810084
0.30710679 3.7473171 -0.34810084
0.31400809 3.7473171 -0.34810084
0.32090935 3.7473171 -0.34810084
0.33471191 3.7473171 -0.34810084
0.34161317 3.7473171 -0.34810084
0.36921829 3.7485538 -0.34487942
0.37611955 3.7485538 -0.34487942
0.38647148 3.7485538 -0.34487945
0.39682341 3.7485538 -0.34487942
0.40372467 3.7485538 -0.34487942
0.013946544 3.788909 -0.34522218
0.024406452 3.788909 -0.34522218
0.034866363 3.788909 -0.34522218
0.04532627 3.788909 -0.34522218
0.055786178 3.788909 -0.34522218
0.066246085 3.788909 -0.34522218
0.073219359 3.788909 -0.34522218
0.083679259 3.788909 -0.34522218
0.10808571 3.788909 -0.34522218
0.11505899 3.788909 -0.34522218
0.1255189 3.788909 -0.34522218
0.1359788 3.788909 -0.34522218
0.14643872 3.788909 -0.34522218
0.15689862 3.788909 -0.34522218
0.1638719 3.788909 -0.34522218
0.1743318 3.788909 -0.34522218
0.19525161 3.788909 -0.34522218
0.20571153 3.788909 -0.34522218
0.21617144 3.788909 -0.34522218
0.22663134 3.788909 -0.34522218
0.23360461 3.788909 -0.34522218
0.24057789 3.788909 -0.34522218
0.25452444 3.788909 -0.34522218
0.26498434 3.788909 -0.34522218
0.27544424 3.788909 -0.34522218
0.28241751 3.788909 -0.34522218
0.29636407 3.788909 -0.34522218
0.30333734 3.788909 -0.34522218
0.31379724 3.788909 -0.34522218
0.32425717 3.788909 -0.34522218
0.33471707 3.788909 -0.34522218
0.34517696 3.788909 -0.34522218
0.35563686 3.788909 -0.34522218
0.36609679 3.788909 -0.34522218
-0.1761696 3.8288512 -0.34886158
-0.16559942 3.8288512 -0.34886158
-0.15502925 3.8288512 -0.34886158
-0.14445907 3.8288512 -0.34886158
-0.1338889 3.8288512 -0.34886158
-0.12331872 3.8288512 -0.34886158
-0.11627194 3.8288512 -0.34886158
-0.10570175 3.8288512 -0.34886158
-0.081038013 3.8288512 -0.34886158
-0.073991232 3.8288512 -0.34886158
-0.06694445 3.8288512 -0.34886158
-0.059897665 3.8288512 -0.34886158
-0.045804095 3.8288512 -0.34886158
-0.035233922 3.8288512 -0.34886158
-0.024663744 3.8288512 -0.34886158
-0.014093568 3.8288512 -0.34886158
-0.0035233919 3.8288512 -0.34886158
0.0035233919 3.8288512 -0.34886158
0.095131584 3.8288512 -0.34886158
0.10217836 3.8288512 -0.34886158
-0.18673977 3.8313766 -0.34228283
-0.1761696 3.8313766 -0.34228283
-0.16559942 3.8313766 -0.34228283
-0.15502925 3.8313766 -0.34228283
-0.14445907 3.8313766 -0.34228283
-0.1338889 3.8313766 -0.34228283
-0.12331872 3.8313766 -0.34228283
-0.11627194 3.8313766 -0.34228283
-0.10570175 3.8313766 -0.34228283
-0.095131584 3.8313766 -0.34228283
-0.084561408 3.8313766 -0.34228283
-0.06694445 3.8313766 -0.34228283
-0.056374274 3.8313766 -0.34228283
-0.045804095 3.8313766 -0.34228283
-0.038757313 3.8313766 -0.34228283
-0.024663744 3.8313766 -0.34228283
-0.014093568 3.8313766 -0.34228283
-0.0035233919 3.8313766 -0.34228283
0.0035233919 3.8313766 -0.34228283
0.095131584 3.8313766 -0.34228283
0.10570175 3.8313766 -0.34228283
0.13036551 3.8313766 -0.34228283
-0.2350214 3.8721962 -0.3459295
-0.22433861 3.8721962 -0.3459295
-0.21721675 3.8721962 -0.3459295
-0.20297302 3.8721962 -0.3459295
-0.19585116 3.8721962 -0.3459295
-0.074779533 3.8721962 -0.3459295
-0.032048371 3.8721962 -0.3459295
-0.68562984 2.9557104 -0.33555412
-0.67465979 2.9557104 -0.33555412
-0.66368967 2.9557104 -0.33555412
-0.65546215 2.9557104 -0.33555409
-0.64723456 2.9557106 -0.33555409
-0.6362645 2.9557106 -0.33555409
-0.62803692 2.9557104 -0.33555409
-0.62494099 2.9821634 -0.3331691
-0.62179315 3.0070593 -0.33595043
-0.61621654 3.0070593 -0.33595043
-0.61578041 3.0343885 -0.33352852
-0.61533672 3.0591326 -0.33900714
-0.60966539 3.0591326 -0.33900714
-0.61533672 3.0611649 -0.33371258
-0.60966539 3.0611649 -0.33371258
-0.60630548 3.0883989 -0.33389983
-0.59772569 3.0894239 -0.33122987
-0.60577196 3.1140351 -0.33947617
-0.6023193 3.1432457 -0.33700031
-0.60174108 3.1719165 -0.33722112
-0.60115254 3.2010951 -0.33744574
-0.5952298 3.2032175 -0.33191645
-0.59457761 3.2318654 -0.33488488
-0.5959233 3.26247 -0.3341541
-0.58486903 3.2610292 -0.33790684
-0.59323698 3.2929044 -0.33530343
-0.58411026 3.2929044 -0.33530343
-0.58026725 3.324264 -0.3355183
-0.57945138 3.3562043 -0.33573723
-0.5754925 3.388742 -0.33596003
-0.57145864 3.4230251 -0.33323944
-0.56514418 3.4230251 -0.33323944
-0.56416035 3.4556768 -0.33641821
-0.55778563 3.4568191 -0.33344257
-0.55672133 3.4912632 -0.33364946
-0.55563617 3.5252118 -0.3368938
-0.54913747 3.5263765 -0.33386028
-0.54577953 3.5617859 -0.33509636
-0.54345948 3.5986891 -0.33429426
-0.51543272 3.6359305 -0.33451772
-0.49021962 3.6739244 -0.33474553
0.051759575 3.7522635 -0.33521509
0.24499531 3.7522635 -0.33521509
0.28640297 3.7522635 -0.33521509
0.29330426 3.7522635 -0.33521509
0.30365616 3.7522635 -0.33521509
0.31400809 3.7522635 -0.33521509
0.32436001 3.7522635 -0.33521509
0.33471191 3.7522635 -0.33521509
0.37611955 3.7522635 -0.33521509
0.38647148 3.7522635 -0.33521509
0.39682341 3.7522635 -0.33521509
0.40372467 3.7522635 -0.33521509
0.013946544 3.7926574 -0.33545706
0.024406452 3.7926574 -0.33545706
0.034866363 3.7926574 -0.33545706
0.04532627 3.7926574 -0.33545706
0.05694839 3.7930739 -0.33437204
0.066246085 3.7926574 -0.33545706
0.073219359 3.7926574 -0.33545706
0.083679259 3.7926574 -0.33545703
0.11505899 3.7926574 -0.33545706
0.12203226 3.7926574 -0.33545706
0.1359788 3.7926574 -0.33545706
0.14760093 3.7922409 -0.33654204
0.15689862 3.7926574 -0.33545706
0.1638719 3.7926574 -0.33545706
0.1743318 3.7926574 -0.33545706
0.18479171 3.7926574 -0.33545706
0.19525161 3.7926574 -0.33545706
0.20571153 3.7926574 -0.33545706
0.21733366 3.7922409 -0.33654204
0.22663134 3.7926574 -0.33545706
0.23360461 3.7914078 -0.3387121
0.24406452 3.7926574 -0.33545706
0.25452444 3.7926574 -0.33545706
0.26498434 3.7926574 -0.33545703
0.27544424 3.7926574 -0.33545706
0.28241751 3.7926574 -0.33545706
0.34517696 3.7926574 -0.33545706
0.35563686 3.7914078 -0.3387121
0.36609679 3.7926574 -0.33545706
0.37307006 3.7914078 -0.3387121
-0.18673977 3.8339021 -0.33570403
-0.1761696 3.8339021 -0.33570403
-0.16559942 3.8339021 -0.33570403
-0.15502925 3.8339021 -0.33570403
-0.14445907 3.8339021 -0.33570403
-0.1338889 3.8339021 -0.33570403
-0.12331872 3.8339021 -0.33570403
-0.11627194 3.8339021 -0.33570403
-0.10570175 3.8339021 -0.33570403
-0.095131584 3.8339021 -0.33570403
-0.084561408 3.8339021 -0.33570403
-0.073991232 3.8339021 -0.33570403
-0.06694445 3.8339021 -0.33570403
-0.056374274 3.8339021 -0.33570403
-0.045804095 3.8339021 -0.33570403
-0.038757313 3.8339021 -0.33570403
-0.024663744 3.8339021 -0.33570403
-0.014093568 3.8339021 -0.33570403
-0.0035233919 3.8339021 -0.33570403
0.0035233919 3.8339021 -0.33570403
0.095131584 3.8339021 -0.33570403
0.10570175 3.8339021 -0.33570403
0.13036551 3.8339021 -0.33570403
0.14445907 3.8339021 -0.33570403
-0.34541023 3.8760247 -0.33595622
-0.33472744 3.8760247 -0.33595622
-0.32404464 3.8760247 -0.33595622
-0.31692278 3.8760247 -0.33595622
-0.30623999 3.8760247 -0.33595622
-0.2955572 3.8747485 -0.33928061
-0.28487441 3.8747485 -0.33928061
-0.27419162 3.8747485 -0.33928061
-0.26706976 3.8747485 -0.33928061
-0.25638697 3.8747485 -0.33928061
-0.24570419 3.8760247 -0.33595622
-0.2350214 3.8760247 -0.33595622
-0.22433861 3.8760247 -0.33595622
-0.21365581 3.8760247 -0.33595622
-0.20297302 3.8760247 -0.33595622
-0.19585116 3.8760247 -0.33595622
-0.032048371 3.8747485 -0.33928061
-0.68562984 2.9586589 -0.32787299
-0.67465979 2.9586589 -0.32787299
-0.66368967 2.9586589 -0.32787299
-0.65546215 2.9586589 -0.32787299
-0.64723456 2.9586589 -0.32787299
-0.6362645 2.9586589 -0.32787299
-0.62803692 2.9586589 -0.32787299
-0.68562984 2.9606247 -0.32275224
-0.67465979 2.9606247 -0.32275224
-0.66368967 2.9606247 -0.32275224
-0.65546215 2.9606247 -0.32275224
-0.64723456 2.9606247 -0.32275224
-0.6362645 2.9606247 -0.32275224
-0.62529445 2.9606247 -0.32275224
-0.62217575 2.9861274 -0.32284287
-0.62179315 3.0110562 -0.32553804
-0.61621654 3.010057 -0.32814115
-0.62327856 3.0387552 -0.32215342
-0.61578041 3.0384192 -0.32302845
-0.61533672 3.0642135 -0.32577065
-0.60777497 3.063875 -0.32665309
-0.60630548 3.0924988 -0.32321995
-0.59772569 3.0924988 -0.32321995
-0.59711808 3.1181703 -0.32870406
-0.6023193 3.1484594 -0.32341784
-0.60174108 3.1761241 -0.3262597
-0.59587044 3.1761241 -0.3262597
-0.5952298 3.2064013 -0.32362249
-0.5959233 3.2660713 -0.32477227
-0.58788383 3.2675118 -0.32101953
-0.59323698 3.2950847 -0.32962316
-0.58411026 3.296175 -0.32678297
-0.58026725 3.327565 -0.3269195
-0.57412684 3.3297653 -0.3211869
-0.57945138 3.3584251 -0.32995147
-0.5754925 3.3932252 -0.32428026
-0.57145864 3.4264195 -0.32439685
-0.56514418 3.4264195 -0.32439685
-0.55882972 3.4264195 -0.32439685
-0.55778563 3.4591036 -0.32749128
-0.55778563 3.4613881 -0.32154
-0.55672133 3.4947228 -0.32463658
-0.55563617 3.5287054 -0.3277933
-0.54913747 3.5287054 -0.3277933
-0.55563617 3.5310342 -0.3217262
-0.54913747 3.5310342 -0.3217262
-0.54468578 3.5657058 -0.32488537
-0.5401457 3.6022518 -0.32501322
-0.53551447 3.6395288 -0.32514381
-0.52547359 3.6395288 -0.32514381
-0.5187797 3.6395288 -0.32514381
-0.53755116 3.6787708 -0.32212043
-0.52402788 3.6787708 -0.32212043
-0.51388538 3.6775594 -0.3252767
-0.50374293 3.6775594 -0.3252767
-0.49360043 3.6775594 -0.3252767
-0.48345798 3.6775594 -0.3252767
-0.47669631 3.6787708 -0.32212043
0.034506381 3.75721 -0.32232922
0.044858295 3.75721 -0.32232922
0.051759575 3.75721 -0.32232922
0.18633446 3.75721 -0.32232922
0.19668637 3.75721 -0.32232922
0.20358765 3.75721 -0.32232922
0.21278936 3.7563856 -0.32447684
0.22429149 3.75721 -0.32232922
0.2346434 3.7559733 -0.32555065
0.28640297 3.7559733 -0.32555065
0.29330426 3.7559733 -0.32555065
0.30365616 3.7559733 -0.32555065
0.31400809 3.7559733 -0.32555065
0.32436001 3.7559733 -0.32555065
0.33471191 3.7559733 -0.32555065
0.34621403 3.7563856 -0.32447684
0.35541573 3.7559733 -0.32555065
0.36691785 3.7563856 -0.32447684
0.37611955 3.7559733 -0.32555065
0.38647148 3.7559733 -0.32555065
0.013946544 3.7964058 -0.32569188
0.024406452 3.7964058 -0.32569188
0.059272811 3.7964058 -0.32569188
0.066246085 3.7964058 -0.32569188
0.073219359 3.7964058 -0.32569188
0.083679259 3.7964058 -0.32569188
0.10808571 3.7964058 -0.32569188
0.11505899 3.7964058 -0.32569188
0.14643872 3.7964058 -0.32569188
0.15689862 3.7964058 -0.32569188
0.1638719 3.7964058 -0.32569188
0.1743318 3.7964058 -0.32569188
0.24755116 3.7964058 -0.32569188
0.25452444 3.7964058 -0.32569188
0.26498434 3.7964058 -0.32569188
0.27544424 3.7964058 -0.32569188
0.28241751 3.7964058 -0.32569188
-0.39814329 3.8389528 -0.3225466
-0.30653509 3.8389528 -0.3225466
-0.29596493 3.8376901 -0.32583597
-0.28539476 3.8376899 -0.32583597
-0.27482456 3.8376899 -0.32583597
-0.26425439 3.8376899 -0.32583597
-0.25368422 3.8376899 -0.32583597
-0.24311405 3.8389528 -0.3225466
-0.2219737 3.8389528 -0.3225466
-0.21492691 3.8389528 -0.3225466
-0.18673977 3.8376899 -0.32583597
-0.1761696 3.8376899 -0.32583597
-0.16559942 3.8376899 -0.32583597
-0.15502925 3.8376899 -0.32583597
-0.14445907 3.8376899 -0.32583597
-0.1338889 3.8376899 -0.32583597
-0.12331872 3.8376899 -0.32583597
-0.11627194 3.8376899 -0.32583597
-0.10570175 3.8376899 -0.32583597
-0.095131584 3.8376899 -0.32583597
-0.084561408 3.8376899 -0.32583597
-0.073991232 3.8376899 -0.32583597
-0.06694445 3.8376899 -0.32583597
-0.056374274 3.8376899 -0.32583597
-0.045804095 3.8376899 -0.32583597
-0.035233922 3.8376901 -0.32583597
-0.024663744 3.8376899 -0.32583597
-0.014093568 3.8376899 -0.32583597
-0.0035233919 3.8376899 -0.32583597
0.0035233919 3.8376899 -0.32583597
0.095131584 3.8376899 -0.32583597
0.10217836 3.8376899 -0.32583597
0.12331872 3.8364272 -0.32912534
0.1338889 3.8376899 -0.32583597
0.14445907 3.8389528 -0.3225466
-0.44511628 3.879853 -0.32598293
-0.43087256 3.879853 -0.32598293
-0.4237507 3.879853 -0.32598293
-0.41662884 3.879853 -0.32598293
-0.40950698 3.879853 -0.32598293
-0.39526325 3.879853 -0.32598293
-0.38458046 3.879853 -0.32598293
-0.37389767 3.879853 -0.32598293
-0.36677581 3.879853 -0.32598293
-0.35609302 3.879853 -0.32598293
-0.33472744 3.879853 -0.32598293
-0.32404464 3.879853 -0.32598293
-0.31692278 3.879853 -0.32598293
-0.2350214 3.879853 -0.32598293
-0.21009488 3.879853 -0.32598293
-0.20297302 3.879853 -0.32598293
-0.19585116 3.879853 -0.32598293
-0.3491298 3.921633 -0.32949328
-0.68548602 2.9384611 -0.31504452
-0.67732543 2.9384611 -0.31504452
-0.67465979 2.963573 -0.31507123
-0.66368967 2.9625902 -0.3176316
-0.65546215 2.963573 -0.31507123
-0.64723456 2.9635732 -0.31507123
-0.6362645 2.963573 -0.31507123
-0.62529445 2.963573 -0.31507123
-0.62217575 2.9891005 -0.31509817
-0.62421578 3.0414422 -0.31515336
-0.61578041 3.0414422 -0.31515336
-0.61533672 3.0682783 -0.3151814
-0.60966539 3.0682783 -0.3151814
-0.60630548 3.0955734 -0.31521004
-0.59772569 3.0955734 -0.31521004
-0.60288733 3.1243727 -0.3125459
-0.6023193 3.1515877 -0.3152684
-0.60174108 3.1792798 -0.31803858
-0.59587044 3.1792798 -0.31803858
-0.60174108 3.1813836 -0.31255788
-0.59587044 3.1813836 -0.31255788
-0.5952298 3.2095852 -0.31532854
-0.58930713 3.2095852 -0.31532854
-0.59391344 3.2696726 -0.31539047
-0.58486903 3.2696726 -0.31539047
-0.58106804 3.2994456 -0.3182624
-0.57498354 3.2994456 -0.3182624
-0.57498354 3.3016262 -0.31258208
-0.57412684 3.3319659 -0.31545436
-0.57325405 3.365088 -0.31259429
-0.57236481 3.3965878 -0.31552041
-0.56610948 3.3965878 -0.31552041
-0.56514418 3.4286823 -0.31850177
-0.55882972 3.4286823 -0.31850177
-0.56514418 3.4309454 -0.31260675
-0.55882972 3.4309454 -0.31260675
-0.55778563 3.4636724 -0.31558865
-0.55672133 3.4981828 -0.31562367
-0.55563617 3.5333631 -0.31565917
-0.54913747 3.5333631 -0.31565917
-0.54468578 3.5680575 -0.31875873
-0.54140455 3.5704095 -0.31263214
-0.5401457 3.6058145 -0.31573224
-0.53886145 3.643127 -0.31576976
-0.52547359 3.643127 -0.31576976
-0.53755116 3.6811941 -0.31580788
-0.52402788 3.6811941 -0.31580788
-0.51388538 3.6811941 -0.31580788
-0.50374293 3.6811941 -0.31580788
-0.49698126 3.6811941 -0.31580788
-0.49522939 3.7188139 -0.31903529
-0.4849833 3.7188139 -0.31903529
-0.49522939 3.721262 -0.31265831
-0.48839867 3.721262 -0.31265831
0.034506381 3.7596831 -0.31588632
0.18633446 3.7596831 -0.31588632
0.19668637 3.7596831 -0.31588632
0.20358765 3.7596831 -0.31588632
0.21739021 3.7596831 -0.31588632
0.22429149 3.7596831 -0.31588632
0.23119277 3.7596831 -0.31588632
-0.49161568 3.7989049 -0.3191818
-0.48464242 3.7989049 -0.3191818
0.013946544 3.7989049 -0.3191818
0.024406452 3.7989049 -0.3191818
0.04532627 3.7989049 -0.3191818
0.055786178 3.7989049 -0.3191818
0.066246085 3.7989049 -0.3191818
0.073219359 3.7989049 -0.3191818
0.083679259 3.7989049 -0.3191818
0.10808571 3.7989049 -0.3191818
0.11505899 3.7989049 -0.3191818
0.12203226 3.7989049 -0.3191818
0.14992535 3.7989049 -0.3191818
0.15689862 3.7989049 -0.3191818
0.1638719 3.7989049 -0.3191818
0.1743318 3.7989049 -0.3191818
0.2126848 3.7989049 -0.3191818
0.24406452 3.7989049 -0.3191818
0.25452444 3.7989049 -0.3191818
0.26498434 3.7989049 -0.3191818
0.27544424 3.7989049 -0.3191818
0.28590417 3.7989049 -0.3191818
-0.49161568 3.801404 -0.31267166
0.013946544 3.801404 -0.31267166
0.024406452 3.801404 -0.31267166
0.04532627 3.801404 -0.31267166
0.055786178 3.801404 -0.31267166
0.066246085 3.801404 -0.31267166
0.073219359 3.801404 -0.31267166
0.083679259 3.801404 -0.31267166
0.10808571 3.801404 -0.31267166
0.11505899 3.801404 -0.31267166
0.12203226 3.801404 -0.31267166
0.14992535 3.801404 -0.31267166
0.15689862 3.801404 -0.31267166
0.1638719 3.801404 -0.31267166
0.1743318 3.801404 -0.31267166
0.18479171 3.801404 -0.31267166
0.19525161 3.801404 -0.31267166
0.20571153 3.801404 -0.31267166
0.21617144 3.801404 -0.31267166
0.22663134 3.801404 -0.31267166
0.24406452 3.801404 -0.31267166
0.25452444 3.801404 -0.31267166
0.26498434 3.801404 -0.31267166
-0.48975149 3.8414781 -0.3159678
-0.41223687 3.8414781 -0.3159678
-0.39814329 3.8414781 -0.3159678
-0.30653509 3.8414781 -0.3159678
-0.29596493 3.8414781 -0.3159678
-0.28539476 3.8414781 -0.3159678
-0.27482456 3.8414781 -0.3159678
-0.26425439 3.8414781 -0.3159678
-0.25368422 3.8414781 -0.3159678
-0.24311405 3.8414781 -0.3159678
-0.18673977 3.8414781 -0.3159678
-0.1761696 3.8414781 -0.3159678
-0.16559942 3.8414781 -0.3159678
-0.15502925 3.8414781 -0.3159678
-0.14445907 3.8414781 -0.3159678
-0.1338889 3.8414781 -0.3159678
-0.12331872 3.8414781 -0.3159678
-0.11627194 3.8414781 -0.3159678
-0.10570175 3.8414781 -0.3159678
-0.095131584 3.8414781 -0.3159678
-0.084561408 3.8414781 -0.3159678
-0.073991232 3.8414781 -0.3159678
-0.06694445 3.8414781 -0.3159678
-0.056374274 3.8414781 -0.3159678
-0.045804095 3.8414781 -0.3159678
-0.035233922 3.8414781 -0.3159678
-0.024663744 3.8414781 -0.3159678
-0.014093568 3.8414781 -0.3159678
-0.0035233919 3.8414781 -0.3159678
0.0035233919 3.8414781 -0.3159678
0.095131584 3.8414781 -0.3159678
0.10217836 3.8414781 -0.3159678
0.1338889 3.8414781 -0.3159678
0.14445907 3.8414781 -0.3159678
-0.48428649 3.8836813 -0.3160097
-0.47360373 3.8836813 -0.3160097
-0.46648186 3.8836813 -0.3160097
-0.45461211 3.8841066 -0.31490156
-0.44511628 3.8836813 -0.3160097
-0.43443349 3.8836813 -0.3160097
-0.4237507 3.8836813 -0.3160097
-0.40950698 3.8824053 -0.31933415
-0.39526325 3.8824053 -0.31933415
-0.38458046 3.8836813 -0.3160097
-0.37389767 3.8824053 -0.31933415
-0.36677581 3.8836813 -0.3160097
-0.35609302 3.8836813 -0.3160097
-0.34541023 3.8824053 -0.31933415
-0.33472741 3.8836813 -0.3160097
-0.32404464 3.8836813 -0.3160097
-0.31692278 3.8836813 -0.3160097
-0.25282604 3.8849576 -0.31268525
-0.24570419 3.8849576 -0.31268525
-0.2350214 3.8836813 -0.3160097
-0.22433861 3.8836813 -0.3160097
-0.21365581 3.8836815 -0.3160097
-0.20297302 3.8836813 -0.3160097
-0.19585116 3.8836813 -0.3160097
-0.1887293 3.8849576 -0.31268525
0.096145116 3.8849576 -0.31268525
-0.3491298 3.9267926 -0.31605244
-0.68276584 2.9404109 -0.30996549
-0.67732543 2.9413857 -0.30742601
-0.66100436 2.9404109 -0.30996549
-0.65556401 2.9413857 -0.30742601
-0.686544 2.9678319 -0.3039763
-0.67465979 2.9675045 -0.30482975
-0.66460389 2.9678319 -0.3039763
-0.65546215 2.9675045 -0.30482975
-0.64723456 2.9675045 -0.30482975
-0.6362645 2.9675045 -0.30482975
-0.6262086 2.9671772 -0.3056832
-0.62401921 2.9924033 -0.30649295
-0.62421578 3.0444651 -0.30727831
-0.61578041 3.0444651 -0.30727831
-0.61533672 3.0723431 -0.30459216
-0.60777497 3.0726817 -0.30370972
-0.60535216 3.0983064 -0.30809006
-0.60288733 3.1264403 -0.30715984
-0.59711808 3.1274741 -0.30446681
-0.60174108 3.1834877 -0.30707717
-0.59587044 3.1845396 -0.30433682
-0.58999979 3.1855915 -0.30159646
-0.60707521 3.21383 -0.30426997
-0.5952298 3.2117076 -0.30979925
-0.58930713 3.2127688 -0.30703461
-0.59391344 3.2729139 -0.30694681
-0.58587396 3.2725537 -0.30788499
-0.57582468 3.2718334 -0.30976135
-0.58411026 3.3048968 -0.3040615
-0.57498354 3.3048968 -0.3040615
-0.57412684 3.3352666 -0.30685556
-0.57325405 3.3684196 -0.30391574
-0.57236481 3.3988295 -0.30968058
-0.56610948 3.3988295 -0.30968058
-0.57236481 3.4010713 -0.30384076
-0.56610948 3.4010713 -0.30384076
-0.56514418 3.4332082 -0.30671167
-0.55672491 3.4347165 -0.30278167
-0.55778563 3.4659569 -0.30963743
-0.55672133 3.5016425 -0.30661076
-0.5621348 3.5380211 -0.30352515
-0.55563617 3.5368567 -0.30655867
-0.54588813 3.535692 -0.30959219
-0.55452955 3.5727613 -0.3065055
-0.54468578 3.5739372 -0.30344224
-0.5401457 3.6081896 -0.3095448
-0.5401457 3.6105647 -0.30335748
-0.53439885 3.6475251 -0.30431265
-0.52547359 3.6479249 -0.30327109
-0.52402788 3.6848288 -0.306339
-0.51388538 3.6848288 -0.306339
-0.50374293 3.6848288 -0.306339
-0.49472737 3.6852329 -0.30528691
-0.48839867 3.7237098 -0.30628121
0.033356171 3.7629807 -0.3072958
-0.49161568 3.8039029 -0.30616152
-0.05229954 3.8039029 -0.30616152
-0.04532627 3.8039029 -0.30616152
0.013946544 3.8039029 -0.30616152
0.024406452 3.8039029 -0.30616152
0.038352996 3.8039029 -0.30616152
0.04532627 3.8039029 -0.30616152
0.055786178 3.8039029 -0.30616152
0.073219359 3.8039029 -0.30616152
0.0871659 3.8039029 -0.30616152
0.10808571 3.8039029 -0.30616152
0.11505899 3.8039029 -0.30616152
0.1743318 3.8039029 -0.30616152
0.18479171 3.8039029 -0.30616152
0.19525161 3.8039029 -0.30616152
-0.48740256 3.8456869 -0.30500332
-0.43337721 3.8465288 -0.30281043
-0.41458583 3.8456869 -0.30500332
-0.40519008 3.8452661 -0.30609977
-0.39461988 3.8452661 -0.30609977
-0.36995617 3.8440034 -0.30938911
-0.30653509 3.8440034 -0.30938911
-0.29596493 3.8440034 -0.30938911
-0.28539476 3.8440034 -0.30938911
-0.27482456 3.8440034 -0.30938911
-0.26425439 3.8440034 -0.30938911
-0.2572076 3.8440034 -0.30938911
-0.17499514 3.8448451 -0.30719623
-0.16559942 3.8440034 -0.30938911
-0.15502925 3.8440034 -0.30938911
-0.14445907 3.8452661 -0.30609977
-0.1338889 3.8452661 -0.30609977
-0.12331872 3.8452661 -0.30609977
-0.11627194 3.8452661 -0.30609977
-0.10687622 3.8448451 -0.30719623
-0.095131584 3.8452661 -0.30609977
-0.08573588 3.8448451 -0.30719623
-0.073991232 3.8440034 -0.30938911
-0.06694445 3.8452661 -0.30609977
-0.057548735 3.8456869 -0.30500332
-0.045804095 3.8465288 -0.30281043
-0.035233922 3.8452661 -0.30609977
-0.024663744 3.8452661 -0.30609977
-0.014093568 3.8452661 -0.30609977
-0.0035233919 3.8452661 -0.30609977
0.0035233919 3.8452661 -0.30609977
0.010570176 3.8465288 -0.30281043
0.056374274 3.8465288 -0.30281043
0.06694445 3.8452661 -0.30609977
0.083386935 3.8456869 -0.30500332
0.095131584 3.8465288 -0.30281043
0.10217836 3.8452661 -0.30609977
0.12331872 3.8440034 -0.30938911
0.1338889 3.8452661 -0.30609977
0.14445907 3.8452661 -0.30609977
0.15502925 3.8452661 -0.30609977
0.16559942 3.8452661 -0.30609977
0.1761696 3.8465288 -0.30281043
-0.48072559 3.8875098 -0.30603647
-0.47360373 3.8875098 -0.30603647
-0.46648186 3.8875098 -0.30603647
-0.45579907 3.8875098 -0.30603647
-0.44511628 3.8875098 -0.30603647
-0.43087256 3.8875098 -0.30603647
-0.38458046 3.8875098 -0.30603647
-0.37389767 3.8875098 -0.30603647
-0.36677581 3.8875098 -0.30603647
-0.35253209 3.8875098 -0.30603647
-0.33116651 3.8875098 -0.30603647
-0.32404464 3.8875098 -0.30603647
-0.31692278 3.8875098 -0.30603647
-0.30623999 3.8875098 -0.30603647
-0.2955572 3.8875098 -0.30603647
-0.28487441 3.8875098 -0.30603647
-0.27419162 3.8875098 -0.30603647
-0.26706976 3.8875098 -0.30603647
-0.25638697 3.8875098 -0.30603647
-0.24570419 3.8875098 -0.30603647
-0.2350214 3.8875098 -0.30603647
-0.22433861 3.8875098 -0.30603647
-0.21365581 3.8875098 -0.30603647
-0.20297302 3.8875098 -0.30603647
-0.18516837 3.8875098 -0.30603647
-0.16380279 3.8875098 -0.30603647
-0.15312 3.8875098 -0.30603647
-0.10326698 3.8875098 -0.30603647
-0.081901394 3.8875098 -0.30603647
-0.074779533 3.8875098 -0.30603647
-0.36352688 3.9293723 -0.30933201
-0.34553051 3.9293723 -0.30933201
-0.19796018 3.9293723 -0.30933201
-0.37072545 3.931952 -0.30261159
-0.36352688 3.931952 -0.30261159
-0.34553051 3.931952 -0.30261159
-0.33473268 3.931952 -0.30261159
-0.32753414 3.931952 -0.30261159
-0.29873991 3.931952 -0.30261159
-0.2555486 3.931952 -0.30261159
-0.24475077 3.931952 -0.30261159
-0.23395294 3.931952 -0.30261159
-0.2267544 3.931952 -0.30261159
-0.21595657 3.931952 -0.30261159
-0.20515874 3.931952 -0.30261159
-0.19796018 3.931952 -0.30261159
-0.27288419 3.9747531 -0.30590558
-0.35681424 4.021132 -0.30240381
-0.34945723 4.021132 -0.30240381
-0.68562984 2.971436 -0.29458827
-0.67465979 2.971436 -0.29458827
-0.66368967 2.971436 -0.29458827
-0.65546215 2.971436 -0.29458827
-0.64723456 2.9714358 -0.29458827
-0.6362645 2.9714358 -0.29458827
-0.63323665 2.996037 -0.29702726
-0.62494099 2.996037 -0.29702726
-0.62179315 3.0230472 -0.29430068
-0.62140399 3.0484958 -0.29677817
-0.61578041 3.0484958 -0.29677817
-0.61533672 3.0753918 -0.29665023
-0.60682976 3.0764079 -0.29400292
-0.60344553 3.1027477 -0.29652017
-0.59772569 3.1017227 -0.29919016
-0.60522902 3.1588869 -0.29625294
-0.60467637 3.1887472 -0.29337534
-0.59587044 3.1887472 -0.29337534
-0.5952298 3.2170138 -0.29597598
-0.58930713 3.2159526 -0.29874063
-0.61250454 3.2479267 -0.29304427
-0.59457761 3.2489974 -0.29025489
-0.5959233 3.2768753 -0.29662681
-0.58788383 3.2772355 -0.29568863
-0.58411026 3.3081677 -0.29554105
-0.57498354 3.3081677 -0.29554105
-0.57412684 3.3385675 -0.2982567
-0.57412684 3.3407681 -0.29252422
-0.57325405 3.3717508 -0.29523718
-0.57236481 3.4033129 -0.29800081
-0.56610948 3.4044337 -0.2950809
-0.55985415 3.4044337 -0.2950809
-0.55882972 3.4377341 -0.29492158
-0.55778563 3.4716682 -0.29475918
-0.55672133 3.5062554 -0.29459357
-0.55563617 3.5415144 -0.29442459
-0.54697126 3.5419025 -0.29341343
-0.54140455 3.5774648 -0.29425228
-0.5401457 3.6141272 -0.29407641
-0.53351814 3.6141272 -0.29407641
-0.53216755 3.6515231 -0.29389715
-0.52547359 3.6515231 -0.29389715
-0.52402788 3.6884634 -0.29687029
-0.51388538 3.6884634 -0.29687029
-0.50374293 3.6884634 -0.29687029
-0.49360043 3.6884634 -0.29687029
-0.53755116 3.6908867 -0.29055774
-0.52402788 3.6908867 -0.29055774
-0.51388538 3.6908867 -0.29055774
-0.50374293 3.6908867 -0.29055774
-0.49360043 3.6908867 -0.29055774
-0.48839867 3.7273817 -0.29671565
-0.50034255 3.7695758 -0.29011476
-0.48653999 3.7671027 -0.29655766
-0.49510232 3.8089008 -0.29314137
0.01743318 3.806402 -0.2996515
0.024406452 3.8076515 -0.29639643
0.034866363 3.8076515 -0.29639643
0.04532627 3.8076515 -0.29639643
0.073219359 3.806402 -0.2996515
0.10808571 3.806402 -0.2996515
-0.48622811 3.8490541 -0.29623163
-0.47565791 3.8490541 -0.29623163
-0.46508777 3.8490541 -0.29623163
-0.43337721 3.8490541 -0.29623163
-0.41223687 3.8490541 -0.29623163
-0.40519008 3.8490541 -0.29623163
-0.13741229 3.8490541 -0.29623163
-0.056374274 3.8490541 -0.29623163
-0.045804095 3.8490541 -0.29623163
-0.014093568 3.8490541 -0.29623163
0.0035233919 3.8490541 -0.29623163
0.014093568 3.8490541 -0.29623163
0.05285088 3.8490541 -0.29623163
0.073991232 3.8490541 -0.29623163
-0.49496931 3.8926141 -0.2927388
-0.45461211 3.8909128 -0.29717132
-0.44511628 3.8913381 -0.29606318
-0.43324652 3.8917634 -0.29495504
-0.4237507 3.8913381 -0.29606318
-0.41662884 3.8926141 -0.2927388
-0.40475908 3.8917634 -0.29495504
-0.39526325 3.8913381 -0.29606318
-0.38458046 3.8900621 -0.29938757
-0.37389767 3.8900621 -0.29938757
-0.35253209 3.8900621 -0.29938757
-0.31692278 3.8900621 -0.29938757
-0.30623999 3.8900621 -0.29938757
-0.28487441 3.8900621 -0.29938757
-0.27419162 3.8900621 -0.29938757
-0.2599479 3.8900621 -0.29938757
-0.18516837 3.8900621 -0.29938757
-0.17448558 3.8900621 -0.29938757
-0.16380279 3.8900621 -0.29938757
-0.15312 3.8900621 -0.29938757
-0.14599814 3.8900621 -0.29938757
-0.13531534 3.8913381 -0.29606318
-0.12463256 3.8900621 -0.29938757
-0.11394977 3.8900621 -0.29938757
-0.10326698 3.8900621 -0.29938757
-0.096145116 3.8900621 -0.29938757
-0.086649299 3.8909128 -0.29717132
-0.074779533 3.8900621 -0.29938757
-0.064096741 3.8913381 -0.29606318
-0.053413954 3.8926141 -0.2927388
-0.046292093 3.8926141 -0.2927388
-0.036796276 3.8909128 -0.29717132
-0.024926512 3.8913381 -0.29606318
-0.01424372 3.8926141 -0.2927388
-0.0035609303 3.8913381 -0.29606318
0.0035609303 3.8926141 -0.2927388
0.010682791 3.8926141 -0.2927388
0.064096741 3.8913381 -0.29606318
0.074779533 3.8926141 -0.2927388
0.085462324 3.8913381 -0.29606318
0.096145116 3.8913381 -0.29606318
0.10326698 3.8913381 -0.29606318
-0.39232108 3.9345317 -0.29589105
-0.38512254 3.9345317 -0.29589105
-0.31313702 3.9345317 -0.29589105
-0.28434283 3.9345317 -0.29589105
-0.27714425 3.9345317 -0.29589105
-0.26274717 3.9345317 -0.29589105
-0.2555486 3.9345317 -0.29589105
-0.24835005 3.9345317 -0.29589105
-0.2267544 3.9345317 -0.29589105
-0.21595657 3.9345317 -0.29589105
-0.20515874 3.9345317 -0.29589105
-0.19076164 3.9345317 -0.29589105
-0.18356308 3.9345317 -0.29589105
-0.17636453 3.9345317 -0.29589105
-0.16556671 3.9345317 -0.29589105
-0.15476887 3.9345317 -0.29589105
-0.14757033 3.9345317 -0.29589105
-0.13317321 3.9345317 -0.29589105
-0.12597467 3.9345317 -0.29589105
-0.11517684 3.9345317 -0.29589105
-0.10437901 3.9345317 -0.29589105
-0.097180456 3.9345317 -0.29589105
-0.082783349 3.9345317 -0.29589105
-0.075584799 3.9345317 -0.29589105
-0.068386249 3.9345317 -0.29589105
-0.032393485 3.9345317 -0.29589105
-0.39659169 3.9799688 -0.29231834
-0.38567632 3.9786649 -0.29571521
-0.37476096 3.977361 -0.29911208
-0.36384559 3.977361 -0.29911208
-0.33473793 3.977361 -0.29911208
-0.32382256 3.977361 -0.29911208
-0.30563027 3.977361 -0.29911208
-0.29471493 3.977361 -0.29911208
-0.28379953 3.9799688 -0.29231834
-0.27288419 3.977361 -0.29911208
-0.26560727 3.9799688 -0.29231834
-0.25833035 3.9799688 -0.29231834
-0.24377653 3.9786649 -0.29571521
-0.23649962 3.9786649 -0.29571521
-0.22558427 3.9799688 -0.29231834
-0.20011507 3.977361 -0.29911208
-0.18556124 3.9799688 -0.29231834
-0.17828433 3.9799688 -0.29231834
-0.11279213 3.9799688 -0.29231834
-0.10551522 3.9799688 -0.29231834
-0.098238304 3.9799688 -0.29231834
-0.083684482 3.9799688 -0.29231834
-0.032746103 3.9799688 -0.29231834
-0.010915367 3.9799688 -0.29231834
-0.0036384559 3.9799688 -0.29231834
0.010915367 3.9799688 -0.29231834
-0.38624221 4.0237684 -0.29553545
-0.37520671 4.0237684 -0.29553545
-0.34210023 4.0237684 -0.29553545
-0.33474323 4.0237684 -0.29553545
-0.32738626 4.0237684 -0.29553545
-0.30531526 4.0237684 -0.29553545
-0.29795825 4.0237684 -0.29553545
-0.27588728 4.0237684 -0.29553545
-0.21703133 4.0237684 -0.29553545
-0.20599584 4.0237684 -0.29553545
-0.19496036 4.0237684 -0.29553545
-0.17288937 4.0237684 -0.29553545
-0.16553237 4.0237684 -0.29553545
-0.15449688 4.0237684 -0.29553545
-0.14346139 4.0237684 -0.29553545
-0.13610439 4.0237684 -0.29553545
-0.1250689 4.0237684 -0.29553545
0.0036784972 4.0237684 -0.29553545
-0.36450398 4.0685415 -0.29882395
-0.35334569 4.0685415 -0.29882395
-0.32359028 4.0685415 -0.29882395
-0.31615141 4.0685415 -0.29882395
-0.39053997 4.0712075 -0.29187918
-0.38310114 4.0712075 -0.29187918
-0.37566227 4.0712075 -0.29187918
-0.33846799 4.0712075 -0.29187918
-0.30499312 4.0712075 -0.29187918
-0.286396 4.0712075 -0.29187918
-0.21572685 4.0712075 -0.29187918
-0.20456856 4.0712075 -0.29187918
-0.19712971 4.0712075 -0.29187918
-0.17481314 4.0712075 -0.29187918
-0.16737428 4.0712075 -0.29187918
-0.156216 4.0712075 -0.29187918
-0.14505771 4.0712075 -0.29187918
-0.13389942 4.0712075 -0.29187918
-0.12274114 4.0712075 -0.29187918
0.0037194283 4.0712075 -0.29187918
-0.37236673 4.1170177 -0.29516339
-0.36484417 4.1170177 -0.29516339
-0.35732162 4.1170177 -0.29516339
-0.34979907 4.1170177 -0.29516339
-0.33475393 4.1170177 -0.29516339
-0.32723138 4.1170177 -0.29516339
-0.31970882 4.1170177 -0.29516339
-0.37660426 4.1665955 -0.29141963
-0.365192 4.1665955 -0.29141963
-0.16357559 4.1665955 -0.29141963
-0.15596741 4.1665955 -0.29141963
-0.14075108 4.1665955 -0.29141963
-0.68562984 2.9753671 -0.28434688
-0.67465979 2.9753671 -0.28434688
-0.66368967 2.9753671 -0.28434688
-0.65546215 2.9753671 -0.28434688
-0.64723456 2.9753671 -0.28434688
-0.6362645 2.9753671 -0.28434688
-0.62803692 2.9743843 -0.28690726
-0.62494099 2.9990101 -0.28928262
-0.63323665 3.0009921 -0.28411943
-0.62770617 3.0009921 -0.28411943
-0.62365204 3.0267112 -0.28475592
-0.62140399 3.0525265 -0.28627807
-0.61390591 3.0521905 -0.28715307
-0.61533672 3.0794566 -0.28606099
-0.60682976 3.0794566 -0.28606099
-0.60399407 3.0814891 -0.28076631
-0.60344553 3.1068473 -0.2858403
-0.6081388 3.1630583 -0.28538698
-0.60761172 3.1919031 -0.28515428
-0.59587044 3.1919031 -0.28515428
-0.5952298 3.2201977 -0.287682
-0.60055327 3.2511389 -0.28467607
-0.59692824 3.2815568 -0.28443044
-0.59323698 3.3114383 -0.28702047
-0.58411026 3.3114383 -0.28702047
-0.57498354 3.3114383 -0.28702047
-0.5688991 3.3125286 -0.28418028
-0.56798649 3.3440688 -0.28392535
-0.56705672 3.3739717 -0.28945148
-0.57236481 3.4077964 -0.28632104
-0.55985415 3.4077964 -0.28632104
-0.56610948 3.4100382 -0.28048122
-0.57145864 3.439997 -0.28902656
-0.55882972 3.439997 -0.28902656
-0.56514418 3.4422598 -0.28313148
-0.55882972 3.4422598 -0.28313148
-0.55778563 3.4750948 -0.28583223
-0.55672133 3.5085618 -0.28858495
-0.56315738 3.5108683 -0.28257638
-0.5621348 3.5450077 -0.28532404
-0.55563617 3.5450077 -0.28532404
-0.54913747 3.5450077 -0.28532404
-0.54468578 3.5798166 -0.28812569
-0.54468578 3.5821683 -0.28199911
-0.5401457 3.6176898 -0.2847954
-0.53886145 3.6551213 -0.28452313
-0.52547359 3.6551213 -0.28452313
-0.53755116 3.6933098 -0.28424513
-0.52402788 3.6933098 -0.28424513
-0.51388538 3.6933098 -0.28424513
-0.50374293 3.6933098 -0.28424513
-0.50433707 3.7326853 -0.28289863
-0.50556225 3.8126493 -0.28337622
-0.49161568 3.8113999 -0.28663123
-0.50384504 3.8528421 -0.28636348
-0.49679828 3.8541048 -0.28307414
-0.4827047 3.8528421 -0.28636348
-0.47565791 3.8528421 -0.28636348
-0.46391329 3.852421 -0.28745994
-0.45451757 3.8528421 -0.28636348
0.017616959 3.8515794 -0.28965282
-0.49496931 3.8951664 -0.28609002
-0.47360373 3.8951664 -0.28609002
-0.45223814 3.8951664 -0.28609002
-0.44511628 3.8951664 -0.28609002
-0.43443349 3.8951664 -0.28609002
-0.4237507 3.8951664 -0.28609002
-0.41662884 3.8951664 -0.28609002
-0.43551239 3.9396913 -0.28245032
-0.42471457 3.9396913 -0.28245032
-0.41391674 3.9384012 -0.28581053
-0.40671819 3.9371114 -0.28917074
-0.39951965 3.9371114 -0.28917074
-0.24835005 3.9371114 -0.28917074
-0.089981906 3.9371114 -0.28917074
-0.075584799 3.9371114 -0.28917074
-0.064786971 3.9371114 -0.28917074
-0.053989142 3.9371114 -0.28917074
-0.046790589 3.9371114 -0.28917074
-0.039592039 3.9371114 -0.28917074
-0.025194932 3.9371114 -0.28917074
-0.01799638 3.9371114 -0.28917074
0.01799638 3.9371114 -0.28917074
0.053989142 3.9371114 -0.28917074
0.064786971 3.9371114 -0.28917074
0.075584799 3.9371114 -0.28917074
-0.41114551 3.9825766 -0.28552485
-0.40386859 3.9825766 -0.28552485
-0.2546919 3.9825766 -0.28552485
-0.076407574 3.9825766 -0.28552485
-0.065492205 3.9825766 -0.28552485
-0.054576837 3.9825766 -0.28552485
-0.043661468 3.9825766 -0.28552485
0.054576837 3.9825766 -0.28552485
-0.41567019 4.0290413 -0.28179884
-0.40463468 4.0277233 -0.28523302
-0.39359918 4.0264049 -0.2886672
-0.29060128 4.0277233 -0.28523302
-0.27588728 4.0264049 -0.2886672
-0.26607797 4.0281625 -0.28408828
-0.25381631 4.0290413 -0.28179884
-0.24645931 4.0277233 -0.28523302
-0.23542382 4.0264049 -0.2886672
-0.22438833 4.0264049 -0.2886672
-0.18392485 4.0264049 -0.2886672
-0.11403341 4.0264049 -0.2886672
-0.10667641 4.0264049 -0.2886672
-0.095640928 4.0264049 -0.2886672
-0.084605433 4.0264049 -0.2886672
-0.077248439 4.0290413 -0.28179884
-0.062534451 4.0290413 -0.28179884
-0.055177458 4.0290413 -0.28179884
-0.044141967 4.0290413 -0.28179884
-0.033106476 4.0277233 -0.28523302
-0.02574948 4.0277233 -0.28523302
-0.014713989 4.0277233 -0.28523302
-0.0036784972 4.0264049 -0.2886672
0.013487823 4.0272841 -0.28637776
0.02574948 4.0264049 -0.2886672
0.033106476 4.0264049 -0.2886672
0.044141967 4.0277233 -0.28523302
-0.40541768 4.073873 -0.2849344
-0.33846799 4.073873 -0.2849344
-0.30499312 4.073873 -0.2849344
-0.286396 4.073873 -0.2849344
-0.27895713 4.073873 -0.2849344
-0.24176285 4.073873 -0.2849344
-0.23432399 4.073873 -0.2849344
-0.22688513 4.073873 -0.2849344
-0.21944627 4.073873 -0.2849344
-0.18597141 4.073873 -0.2849344
-0.11530228 4.073873 -0.2849344
-0.10042457 4.073873 -0.2849344
-0.092985712 4.073873 -0.2849344
-0.085546851 4.073873 -0.2849344
-0.070669137 4.073873 -0.2849344
-0.0037194283 4.073873 -0.2849344
0.0037194283 4.073873 -0.2849344
0.018597143 4.073873 -0.2849344
0.026035998 4.073873 -0.2849344
0.033474855 4.073873 -0.2849344
0.040913712 4.073873 -0.2849344
-0.40245697 4.1197133 -0.28814054
-0.39493442 4.1197133 -0.28814054
-0.38741186 4.1197133 -0.28814054
-0.37988931 4.1197133 -0.28814054
-0.34979907 4.1197133 -0.28814054
-0.33475393 4.1197133 -0.28814054
-0.32723138 4.1197133 -0.28814054
-0.31970882 4.1197133 -0.28814054
-0.21439297 4.1197133 -0.28814054
-0.20687041 4.1197133 -0.28814054
-0.19934785 4.1197133 -0.28814054
-0.17678016 4.1197133 -0.28814054
-0.16925761 4.1197133 -0.28814054
-0.14668992 4.1197133 -0.28814054
-0.1316448 4.1197133 -0.28814054
-0.12412225 4.1197133 -0.28814054
-0.10907713 4.1197133 -0.28814054
-0.40621826 4.1224093 -0.28111768
-0.39493442 4.1224093 -0.28111768
-0.38741186 4.1224093 -0.28111768
-0.37988931 4.1224093 -0.28111768
-0.34979907 4.1224093 -0.28111768
-0.33475393 4.1224093 -0.28111768
-0.32723138 4.1224093 -0.28111768
-0.31970882 4.1224093 -0.28111768
-0.23696065 4.1224093 -0.28111768
-0.2256768 4.1224093 -0.28111768
-0.21439297 4.1224093 -0.28111768
-0.20687041 4.1224093 -0.28111768
-0.19558656 4.1224093 -0.28111768
-0.18430273 4.1224093 -0.28111768
-0.11659969 4.1224093 -0.28111768
-0.10155457 4.1224093 -0.28111768
-0.094032004 4.1224093 -0.28111768
-0.37660426 4.169322 -0.28431678
-0.365192 4.169322 -0.28431678
-0.17498782 4.169322 -0.28431678
-0.16357559 4.169322 -0.28431678
-0.15596741 4.169322 -0.28431678
-0.14455517 4.169322 -0.28431678
-0.13314292 4.169322 -0.28431678
-0.12553474 4.169322 -0.28431678
-0.11031841 4.169322 -0.28431678
-0.46559238 4.2200718 -0.28040481
-0.45789665 4.2200718 -0.28040481
-0.68562984 2.9783156 -0.27666575
-0.67465979 2.9783156 -0.27666575
-0.66368967 2.9783156 -0.27666575
-0.63323665 3.002974 -0.27895629
-0.59994298 3.2858787 -0.27317223
-0.59627926 3.3157992 -0.27565977
-0.58411026 3.3157995 -0.27565977
-0.57498354 3.3157992 -0.27565977
-0.5688991 3.3157992 -0.27565977
-0.56798649 3.3473697 -0.27532649
-0.56705672 3.3784137 -0.27788001
-0.56705672 3.3806345 -0.27209431
-0.56610948 3.4122798 -0.27464134
-0.56514418 3.4445229 -0.2772364
-0.55882972 3.4456544 -0.27428889
-0.56315738 3.514328 -0.2735635
-0.5621348 3.548501 -0.27622354
-0.55563617 3.548501 -0.27622354
-0.54913747 3.548501 -0.27622354
-0.54468578 3.5845201 -0.27587247
-0.54235488 3.6216486 -0.27448323
-0.53886145 3.6587198 -0.27514911
-0.52547359 3.6587198 -0.27514911
-0.5187797 3.6587198 -0.27514911
-0.53755116 3.6969447 -0.27477631
-0.51275843 3.6965408 -0.27582839
-0.50889093 3.7359495 -0.27439594
-0.50724381 3.7757587 -0.27400756
-0.50556225 3.8163979 -0.27361107
-0.50384504 3.8566301 -0.27649546
-0.49679828 3.8566301 -0.27649546
-0.49496931 3.8977187 -0.27944124
-0.48428652 3.8977187 -0.27944124
-0.47360373 3.8977187 -0.27944124
-0.46648186 3.8977187 -0.27944124
-0.45579907 3.8977187 -0.27944124
-0.44511628 3.8977187 -0.27944124
-0.43799442 3.8977187 -0.27944124
-0.48072559 3.9002709 -0.27279234
-0.47360373 3.9002709 -0.27279234
-0.46648186 3.9002709 -0.27279234
-0.45936 3.9002709 -0.27279234
-0.45710805 3.942271 -0.27572989
-0.44631022 3.942271 -0.27572989
-0.43551239 3.942271 -0.27572989
-0.43297625 3.9864883 -0.27533448
-0.42569932 3.9851844 -0.27873123
-0.4184224 3.9851844 -0.27873123
-0.044141967 4.0316782 -0.27493048
-0.033106476 4.0316782 -0.27493048
-0.43517312 4.076539 -0.27798963
-0.42401484 4.076539 -0.27798963
-0.41285655 4.076539 -0.27798963
-0.33846799 4.0778723 -0.27451724
-0.31615141 4.079205 -0.27104485
-0.30375332 4.0774274 -0.2756747
-0.29383484 4.0778723 -0.27451724
-0.286396 4.076539 -0.27798963
-0.27399787 4.0774274 -0.2756747
-0.26407942 4.076539 -0.27798963
-0.25664055 4.076539 -0.27798963
-0.24548227 4.076539 -0.27798963
-0.085546851 4.076539 -0.27798963
-0.075628377 4.0774279 -0.2756747
-0.063230284 4.0778723 -0.27451724
-0.055791426 4.0778723 -0.27451724
-0.048352569 4.079205 -0.27104485
0.0037194283 4.076539 -0.27798963
-0.44006976 4.1251049 -0.2740947
-0.43254721 4.1251049 -0.2740947
-0.42502466 4.1251049 -0.2740947
-0.41750211 4.1251049 -0.2740947
-0.40621826 4.1251049 -0.2740947
-0.39493442 4.1251049 -0.2740947
-0.38741186 4.1251049 -0.2740947
-0.37612802 4.1251049 -0.2740947
-0.35732162 4.1251049 -0.2740947
-0.34979907 4.1251049 -0.2740947
-0.33475393 4.1251049 -0.2740947
-0.32723138 4.1251049 -0.2740947
-0.31218624 4.1251049 -0.2740947
-0.28585729 4.1251049 -0.2740947
-0.26705089 4.1251049 -0.2740947
-0.25576705 4.1251049 -0.2740947
-0.24448322 4.1251049 -0.2740947
-0.23696065 4.1251049 -0.2740947
-0.2256768 4.1251049 -0.2740947
-0.21439297 4.1251049 -0.2740947
-0.19558656 4.1251049 -0.2740947
-0.18430273 4.1251049 -0.2740947
-0.11659969 4.1251049 -0.2740947
-0.10155457 4.1251049 -0.2740947
-0.094032004 4.1251049 -0.2740947
-0.086509444 4.1251049 -0.2740947
-0.071464323 4.1251049 -0.2740947
-0.44507775 4.1747751 -0.27011108
-0.43746957 4.1747751 -0.27011108
-0.41464508 4.1747751 -0.27011108
-0.3842124 4.1747751 -0.27011108
-0.37660426 4.1747751 -0.27011108
-0.36646 4.1738663 -0.2724787
-0.21683276 4.1747751 -0.27011108
-0.20922458 4.1734118 -0.27366251
-0.17625587 4.1729574 -0.27484632
-0.16357559 4.1734118 -0.27366251
-0.15596741 4.1734118 -0.27366251
-0.14455517 4.1734118 -0.27366251
-0.13314292 4.1734118 -0.27366251
-0.12553474 4.1734118 -0.27366251
-0.11031841 4.1734118 -0.27366251
-0.48098388 4.2228298 -0.2732203
-0.47328815 4.2228298 -0.2732203
-0.46559238 4.2228298 -0.2732203
-0.45789665 4.2228298 -0.2732203
-0.60540599 3.3190701 -0.2671392
-0.59627926 3.3190701 -0.2671392
-0.58411026 3.3190701 -0.2671392
-0.57498354 3.3190701 -0.2671392
-0.5688991 3.3190701 -0.2671392
-0.56798649 3.34957 -0.26959395
-0.57236481 3.4156425 -0.26588151
-0.56610948 3.4156425 -0.26588151
-0.55985415 3.4156425 -0.26588151
-0.55882972 3.4490485 -0.26544631
-0.570535 3.4842329 -0.26202708
-0.56416035 3.4842329 -0.26202708
-0.56315738 3.5177879 -0.26455057
-0.55672133 3.5177879 -0.26455057
-0.5621348 3.5543234 -0.26105589
-0.55563617 3.553159 -0.26408944
-0.54913747 3.5519946 -0.26712298
-0.55452955 3.5892236 -0.2636193
-0.54796702 3.5868719 -0.26974589
-0.55340081 3.6248152 -0.26623344
-0.54456407 3.6263988 -0.26210853
-0.54555541 3.6611185 -0.26889986
-0.53886145 3.662318 -0.2657752
-0.52547359 3.662318 -0.2657752
-0.51543272 3.6623178 -0.2657752
-0.50539184 3.6635175 -0.26265055
-0.53755116 3.7005792 -0.26530755
-0.50889093 3.7383974 -0.26801884
-0.50889093 3.7408452 -0.26164186
-0.49522939 3.7408452 -0.26164186
-0.49510232 3.8188968 -0.26710093
-0.49510232 3.8213959 -0.26059079
-0.48622811 3.8591554 -0.26991665
-0.48622811 3.8616807 -0.26333797
-0.47565791 3.8616807 -0.26333797
-0.47360373 3.9028232 -0.26614356
-0.46648186 3.9028232 -0.26614356
-0.45936 3.9028232 -0.26614356
-0.45710805 3.9461405 -0.2656492
-0.44631025 3.9461405 -0.2656492
-0.43551239 3.9448507 -0.26900947
-0.29383484 4.081871 -0.26410007
-0.27151826 4.081871 -0.26410007
-0.42502466 4.1278009 -0.26707172
-0.41750211 4.1278009 -0.26707172
-0.40245697 4.1278009 -0.26707172
-0.39493442 4.1278009 -0.26707172
-0.38741186 4.1278009 -0.26707172
-0.34603778 4.1278009 -0.26707172
-0.33475393 4.1278009 -0.26707172
-0.32723138 4.1278009 -0.26707172
-0.31594753 4.1278009 -0.26707172
-0.30466369 4.1278009 -0.26707172
