# .PCD v0.7 - Point Cloud Data file format
VERSION 0.7
FIELDS x y z
SIZE 4 4 4
TYPE F F F
COUNT 1 1 1
WIDTH 1030
HEIGHT 1
VIEWPOINT 0 0 0 1 0 0 0
POINTS 1030
DATA ascii
-0.70324194 2.9178798 -0.70698321
-0.69473499 2.9178796 -0.70698327
-0.63173366 2.9755116 -0.70034254
-0.70324194 2.9219446 -0.69639397
-0.69473499 2.9219446 -0.69639403
-0.68622798 2.9219444 -0.69639403
-0.67488539 2.9219444 -0.69639403
-0.66354275 2.9219444 -0.69639403
-0.65503585 2.9219446 -0.69639403
-0.64652884 2.9219444 -0.69639403
-0.63518625 2.9219446 -0.69639397
-0.6266793 2.9209282 -0.69904137
-0.63204485 2.9479866 -0.69968653
-0.63204485 2.9500365 -0.69434655
-0.63173366 2.9775791 -0.69495654
-0.63141686 3.0066438 -0.69286054
-0.62559736 3.0066438 -0.69286054
-0.62522364 3.0341141 -0.69620824
-0.61641771 3.035166 -0.69346786
-0.60411388 3.0641937 -0.69408572
-0.70324194 2.9260092 -0.68580484
-0.69473499 2.9260092 -0.68580478
-0.68622804 2.9260094 -0.68580478
-0.67488539 2.9260094 -0.68580478
-0.66354275 2.9260094 -0.68580478
-0.65503585 2.9260092 -0.68580478
-0.64652884 2.9260092 -0.68580484
-0.63613147 2.9256706 -0.68668723
-0.63395149 2.9527695 -0.68722671
-0.63173366 2.9796467 -0.68957043
-0.63173366 2.9817142 -0.68418443
-0.62559736 3.0097718 -0.68471104
-0.6197778 3.0097718 -0.68471104
-0.61641765 3.038322 -0.68524677
-0.60761172 3.038322 -0.68524677
-0.60411388 3.0684388 -0.68302715
-0.60652888 3.0990934 -0.68076766
-0.60597259 3.1281395 -0.68409622
-0.59994298 3.12922 -0.68128169
-0.59627926 3.1588044 -0.68464518
-0.58715254 3.1598947 -0.68180501
-0.58026725 3.1911325 -0.6823377
-0.64952183 2.9044013 -0.67215681
-0.70324194 2.9290578 -0.67786288
-0.69473499 2.9290578 -0.67786288
-0.68622804 2.9290578 -0.67786288
-0.67488539 2.9290578 -0.67786288
-0.66354275 2.9290578 -0.67786288
-0.64652884 2.9290578 -0.67786288
-0.63518625 2.9290578 -0.67786288
-0.70324194 2.9310904 -0.6725682
-0.69473499 2.9310904 -0.6725682
-0.68622804 2.9310904 -0.6725682
-0.67488539 2.9310904 -0.6725682
-0.66354275 2.9310904 -0.6725682
-0.65503585 2.9310904 -0.6725682
-0.64652884 2.9310904 -0.6725682
-0.63518625 2.9310904 -0.6725682
-0.63204485 2.9572108 -0.67565674
-0.62632501 2.9582357 -0.67298675
-0.62596434 2.9848154 -0.67610526
-0.62559736 3.0118575 -0.67927808
-0.61783797 3.0132477 -0.67565608
-0.61348236 3.0414777 -0.67702568
-0.60761172 3.0414777 -0.67702568
-0.60707521 3.0716226 -0.67473322
-0.60652888 3.1012349 -0.6751889
-0.60597259 3.1324611 -0.67283797
-0.59994298 3.1324611 -0.67283797
-0.59627926 3.1631656 -0.67328447
-0.58411026 3.1631656 -0.67328447
-0.58026725 3.1944335 -0.67373884
-0.5773856 3.2266502 -0.67323732
-0.58487552 3.2598431 -0.67175287
-0.5754925 3.2587223 -0.67467284
-0.57461584 3.2917771 -0.67515272
-0.64671004 2.908432 -0.66165668
-0.70229673 2.9338 -0.66550875
-0.69473499 2.9341388 -0.6646263
-0.68622798 2.9341388 -0.6646263
-0.67488539 2.9341388 -0.6646263
-0.66354275 2.9341388 -0.6646263
-0.64369321 2.9331226 -0.66727364
-0.63518625 2.9341388 -0.6646263
-0.63204485 2.9613104 -0.66497689
-0.62632501 2.9613104 -0.66497689
-0.62307972 2.9889505 -0.66533315
-0.61686808 3.0170712 -0.66569561
-0.61348236 3.0456853 -0.66606426
-0.60761172 3.0456853 -0.66606426
-0.60707521 3.073745 -0.66920394
-0.61250454 3.1033764 -0.66961014
-0.60652888 3.1044471 -0.66682076
-0.60597259 3.1357026 -0.66439438
-0.59994298 3.1357026 -0.66439438
-0.59627926 3.1664362 -0.66476393
-0.58411026 3.1664362 -0.66476393
-0.58026725 3.1977341 -0.66514003
-0.58487552 3.2632055 -0.66299301
-0.5786202 3.2632055 -0.66299301
-0.57356346 3.2959259 -0.66434509
-0.56514418 3.2974343 -0.66041511
-0.55882972 3.2974343 -0.66041511
-0.570535 3.3311722 -0.66076338
-0.56416035 3.3311722 -0.66076338
-0.56315738 3.3632531 -0.66712689
-0.56538415 3.400615 -0.66147983
-0.70294565 2.9114549 -0.65378159
-0.69451034 2.9124625 -0.65115654
-0.68888676 2.9124625 -0.65115654
-0.66639251 2.9124625 -0.65115654
-0.64671004 2.9114549 -0.65378159
-0.63827467 2.9104474 -0.65640664
-0.68622804 2.9371877 -0.6566844
-0.67772108 2.9371877 -0.6566844
-0.66448802 2.937865 -0.65491951
-0.64369321 2.9371877 -0.6566844
-0.63518625 2.9382038 -0.65403706
-0.63204485 2.9654102 -0.65429693
-0.62632501 2.9654102 -0.65429693
-0.62211818 2.9927409 -0.65545875
-0.61589813 3.0208948 -0.65573519
-0.61348236 3.048841 -0.65784317
-0.60761172 3.048841 -0.65784317
-0.61348236 3.050945 -0.65236247
-0.60761172 3.050945 -0.65236247
-0.60707521 3.0779901 -0.65814531
-0.61250454 3.1087303 -0.65566325
-0.60652888 3.1087303 -0.65566325
-0.60597259 3.1378632 -0.65876532
-0.59994298 3.1378632 -0.65876532
-0.60597259 3.1400242 -0.65313613
-0.59994298 3.1400242 -0.65313613
-0.59627926 3.1686168 -0.6590836
-0.58411026 3.1686168 -0.6590836
-0.59323698 3.1707971 -0.65340328
-0.58411026 3.1707971 -0.65340328
-0.58026725 3.1999347 -0.6594075
-0.58026725 3.2021353 -0.6536749
-0.59184611 3.2340534 -0.65395159
-0.58564878 3.2340534 -0.65395159
-0.58487552 3.2665682 -0.65423322
-0.5754925 3.2665682 -0.65423322
-0.57461584 3.2996972 -0.65452003
-0.570535 3.3334568 -0.65481216
-0.56416035 3.3334568 -0.65481216
-0.56959349 3.3678663 -0.6551097
-0.5621348 3.4029438 -0.65541285
-0.051230628 3.591522 -0.65064216
-0.044399876 3.591522 -0.65064216
-0.030738376 3.591522 -0.65064216
-0.0034153752 3.591522 -0.65064216
0.0034153752 3.591522 -0.65064216
-0.044858295 3.6310768 -0.65091693
-0.034506381 3.6310768 -0.65091693
-0.024154468 3.6310768 -0.65091693
-0.013802553 3.6310768 -0.65091693
-0.70294571 2.9154854 -0.64328152
-0.69451034 2.9154854 -0.64328152
-0.68607497 2.9154854 -0.64328152
-0.67482781 2.9154856 -0.64328152
-0.66451794 2.9158213 -0.64240652
-0.65514535 2.9154854 -0.64328152
-0.64671004 2.9154854 -0.64328152
-0.63827467 2.9154854 -0.64328152
-0.63518625 2.9422686 -0.64344782
-0.6266793 2.9432847 -0.64080048
-0.62346506 2.9684849 -0.64628708
-0.62060511 2.9705346 -0.6409471
-0.62019509 2.9972205 -0.64378893
-0.61442584 2.9972205 -0.64378893
-0.6139583 3.0254135 -0.64396369
-0.61348236 3.0541008 -0.64414132
-0.60761172 3.0541008 -0.64414132
-0.60707521 3.0843575 -0.6415574
-0.60354108 3.1130133 -0.64450574
-0.59692824 3.1432652 -0.64469254
-0.59526515 3.1744311 -0.64393598
-0.58411026 3.1729777 -0.6477229
-0.59254807 3.205436 -0.6450761
-0.58640766 3.2065363 -0.64220983
-0.58564878 3.2373848 -0.64527303
-0.58487552 3.2688098 -0.64839333
-0.5786202 3.2688098 -0.64839333
-0.58487552 3.2710516 -0.64255351
-0.5786202 3.2710516 -0.64255351
-0.57461584 3.3030915 -0.64567745
-0.57372236 3.3368835 -0.64588517
-0.5760296 3.3701727 -0.64910108
-0.56530279 3.3709414 -0.64709824
-0.55672133 3.3724792 -0.64309251
-0.55563617 3.405273 -0.64934582
0.013523299 3.5551898 -0.64406019
0.023665775 3.5551898 -0.64406019
0.03380825 3.5551898 -0.64406019
0.043950725 3.5551898 -0.64406019
0.057474025 3.5551898 -0.64406019
0.064235672 3.5551898 -0.64406019
0.074378148 3.5551898 -0.64406019
0.084520623 3.5551898 -0.64406019
0.094663098 3.5551898 -0.64406019
-0.25615314 3.5939701 -0.64426512
-0.24932238 3.5939701 -0.64426512
-0.13319963 3.5939701 -0.64426512
-0.11953814 3.5939701 -0.64426512
-0.051230628 3.5939701 -0.64426512
-0.0034153752 3.5939701 -0.64426512
0.023907626 3.5939701 -0.64426512
0.030738376 3.5939701 -0.64426512
0.064892128 3.5939701 -0.64426512
-0.50724381 3.6335502 -0.64447409
-0.49344125 3.6335502 -0.64447409
-0.48653999 3.6335502 -0.64447409
-0.47618806 3.6335502 -0.64447409
-0.46583617 3.6335502 -0.64447409
-0.45548424 3.6335502 -0.64447409
-0.44513234 3.6335502 -0.64447409
-0.43478042 3.6335502 -0.64447409
-0.42442849 3.6335502 -0.64447409
-0.4140766 3.6335502 -0.64447409
-0.37611955 3.6335502 -0.64447409
-0.36576766 3.6335502 -0.64447409
-0.35541573 3.6335502 -0.64447409
-0.34506381 3.6335502 -0.64447409
-0.32436001 3.6335502 -0.64447409
-0.31400809 3.6335502 -0.64447409
-0.29330426 3.6335502 -0.64447409
-0.28640297 3.6335502 -0.64447409
-0.27950171 3.6335502 -0.64447409
-0.26569915 3.6335502 -0.64447409
-0.22429149 3.6335502 -0.64447409
-0.21393958 3.6335502 -0.64447409
-0.20358765 3.6335502 -0.64447409
-0.19668637 3.6335502 -0.64447409
-0.18633446 3.6335502 -0.64447409
-0.17598255 3.6335502 -0.64447409
-0.16563064 3.6335502 -0.64447409
-0.15527873 3.6335502 -0.64447409
-0.14492682 3.6335502 -0.64447409
-0.13457489 3.6335502 -0.64447409
-0.12422298 3.6335502 -0.64447409
-0.11387106 3.6335502 -0.64447409
-0.10351915 3.6335502 -0.64447409
-0.09316723 3.6335502 -0.64447409
-0.086265959 3.6335502 -0.64447409
-0.07591404 3.6335502 -0.64447409
-0.065562129 3.6335502 -0.64447409
-0.05866085 3.6335502 -0.64447409
-0.044858295 3.6335502 -0.64447409
-0.034506381 3.6335502 -0.64447409
-0.024154468 3.6335502 -0.64447409
-0.013802553 3.6335502 -0.64447409
0.0034506381 3.6335502 -0.64447409
-0.2126848 3.673955 -0.64468729
-0.20571153 3.673955 -0.64468729
-0.19873825 3.673955 -0.64468729
-0.70294571 2.9185085 -0.63540643
-0.69451034 2.9185085 -0.63540643
-0.68607497 2.9185085 -0.63540643
-0.67482781 2.9185085 -0.63540643
-0.66358072 2.9185085 -0.63540643
-0.65514535 2.9185085 -0.63540643
-0.64671004 2.9185085 -0.63540643
-0.63827467 2.9185085 -0.63540643
-0.70294571 2.9205239 -0.6301564
-0.69451034 2.9205239 -0.6301564
-0.68607497 2.9205239 -0.6301564
-0.67482781 2.9205239 -0.6301564
-0.66639251 2.9205239 -0.6301564
-0.64389825 2.9205239 -0.6301564
-0.63827467 2.9205239 -0.6301564
-0.66354275 2.9453173 -0.63550591
-0.65503585 2.9453173 -0.63550591
-0.63518625 2.9463334 -0.63285863
-0.62384367 2.9463334 -0.63285863
-0.62060511 2.9736094 -0.63293713
-0.62019509 3.0013556 -0.63301682
-0.61442584 3.0013556 -0.63301682
-0.6139583 3.0285416 -0.63581419
-0.6139583 3.0306273 -0.63038123
-0.61348236 3.0583084 -0.6331799
-0.60761172 3.0583084 -0.6331799
-0.60411388 3.0875413 -0.63326347
-0.60055327 3.1172962 -0.63334823
-0.59793311 3.1479471 -0.63249618
-0.59323698 3.1784289 -0.63352203
-0.59254807 3.2087369 -0.63647729
-0.58640766 3.2087369 -0.63647729
-0.58640766 3.2109373 -0.6307447
-0.58564878 3.2418265 -0.63370162
-0.58487552 3.2744141 -0.63379365
-0.5786202 3.2744141 -0.63379365
-0.57777309 3.3076172 -0.63388735
-0.57372236 3.3414524 -0.6339826
-0.56416035 3.3414526 -0.6339826
-0.56315738 3.3747857 -0.63708389
-0.55350327 3.3747857 -0.63708389
-0.5686335 3.4122596 -0.63114476
0.1372256 3.5195842 -0.6376099
0.14391953 3.5195842 -0.6376099
0.15396042 3.5195842 -0.6376099
0.17738917 3.5195842 -0.6376099
0.1840831 3.5195842 -0.6376099
0.19747098 3.5195842 -0.6376099
0.13387862 3.5219829 -0.63136059
0.14391953 3.5219829 -0.63136059
0.15396042 3.5219829 -0.63136059
0.16400132 3.5219829 -0.63136059
0.17404221 3.5219829 -0.63136059
0.1840831 3.5219829 -0.63136059
0.19412401 3.5219829 -0.63136059
0.20416491 3.5219829 -0.63136059
0.2142058 3.5219829 -0.63136059
0.2242467 3.5219829 -0.63136059
0.23428759 3.5219829 -0.63136059
0.2443285 3.5219829 -0.63136059
0.25436938 3.5219829 -0.63136059
0.26441029 3.5219829 -0.63136059
0.2744512 3.5219829 -0.63136059
0.28449208 3.5219829 -0.63136059
0.013523299 3.5576129 -0.63774759
0.037189074 3.5576129 -0.63774759
0.043950725 3.5576129 -0.63774759
0.054093197 3.5576129 -0.63774759
0.074378148 3.5576129 -0.63774759
0.084520623 3.5576129 -0.63774759
0.094663098 3.5576129 -0.63774759
0.10480557 3.5576129 -0.63774759
0.11494805 3.5576129 -0.63774759
0.12509052 3.5576129 -0.63774759
0.013523299 3.5600362 -0.63143504
0.037189074 3.5600362 -0.63143504
0.043950725 3.5600362 -0.63143504
0.054093197 3.5600362 -0.63143504
0.064235672 3.5600362 -0.63143504
0.074378148 3.5600362 -0.63143504
0.084520623 3.5600362 -0.63143504
0.094663098 3.5600362 -0.63143504
0.10480557 3.5600362 -0.63143504
0.11494805 3.5600362 -0.63143504
0.12509052 3.5600362 -0.63143504
-0.39618352 3.5976417 -0.63469952
-0.38593739 3.5976419 -0.63469952
-0.37910664 3.5976419 -0.63469952
-0.27664539 3.5988657 -0.63151097
-0.26753771 3.5980499 -0.63363665
-0.25615314 3.5976419 -0.63469952
-0.24590702 3.5976417 -0.63469952
-0.2356609 3.5976419 -0.63469952
-0.13319963 3.5988657 -0.63151097
-0.11953814 3.5988657 -0.63151097
-0.10587663 3.5988657 -0.63151097
-0.092215128 3.5988657 -0.63151097
-0.085384384 3.5988657 -0.63151097
-0.064892128 3.5988657 -0.63151097
-0.053507548 3.5980499 -0.63363665
-0.044399876 3.5988657 -0.63151097
-0.0034153752 3.5976419 -0.63469952
0.023907626 3.5976419 -0.63469952
0.030738376 3.5964179 -0.63788807
-0.49344125 3.63726 -0.63480973
-0.48653999 3.63726 -0.63480973
-0.47618806 3.63726 -0.63480973
-0.46583617 3.63726 -0.63480973
-0.45548424 3.63726 -0.63480973
-0.44513234 3.6360233 -0.63803118
-0.43363023 3.6368477 -0.63588357
-0.42442849 3.63726 -0.63480973
-0.4140766 3.63726 -0.63480973
-0.37611955 3.63726 -0.63480973
-0.36576766 3.63726 -0.63480973
-0.35541573 3.63726 -0.63480973
-0.34506384 3.63726 -0.63480973
-0.33471191 3.6360233 -0.63803118
-0.32436001 3.63726 -0.63480973
-0.31400809 3.63726 -0.63480973
-0.30365616 3.63726 -0.63480973
-0.29330426 3.63726 -0.63480973
-0.28640297 3.6360233 -0.63803118
-0.23119277 3.6360233 -0.63803118
-0.22429149 3.63726 -0.63480973
-0.2150898 3.6376722 -0.6337359
-0.20358765 3.6384964 -0.63158828
-0.19668637 3.6384964 -0.63158828
-0.18633446 3.63726 -0.63480973
-0.17598255 3.63726 -0.63480973
-0.16563064 3.63726 -0.63480973
-0.15527873 3.63726 -0.63480973
-0.14492682 3.63726 -0.63480973
-0.12767361 3.6360233 -0.63803118
-0.11387106 3.6360233 -0.63803118
-0.10006851 3.6360233 -0.63803118
-0.07591404 3.63726 -0.63480973
-0.035656597 3.6368477 -0.63588357
-0.024154468 3.63726 -0.63480973
-0.013802553 3.6360233 -0.63803118
0.0034506381 3.6360233 -0.63803118
-0.54042858 3.6764541 -0.63817722
-0.53345531 3.6777034 -0.63492215
-0.52648205 3.6777034 -0.63492215
-0.51602215 3.6764541 -0.63817722
-0.50556225 3.6777034 -0.63492215
-0.44628942 3.6764541 -0.63817722
-0.3382037 3.6764541 -0.63817722
-0.20571153 3.6789529 -0.63166702
-0.66358072 2.922539 -0.6249063
-0.65514535 2.922539 -0.6249063
-0.64671004 2.922539 -0.6249063
-0.63827467 2.922539 -0.6249063
-0.66354275 2.9493821 -0.62491667
-0.63518625 2.9493821 -0.62491667
-0.62384367 2.9493821 -0.62491667
-0.62060511 2.9766841 -0.62492722
-0.62019509 3.0044568 -0.62493765
-0.61442584 3.0044568 -0.62493765
-0.6139583 3.0327127 -0.62494826
-0.61348236 3.0614643 -0.62495887
-0.60761172 3.0614643 -0.62495887
-0.60411388 3.0907249 -0.62496948
-0.60055327 3.1205084 -0.62498009
-0.60597259 3.1508281 -0.6249907
-0.59692824 3.1508281 -0.6249907
-0.59323698 3.1816995 -0.62500149
-0.58715254 3.1816995 -0.62500149
-0.58487552 3.2777767 -0.6250338
-0.5786202 3.2777767 -0.6250338
-0.58408755 3.3110116 -0.6250447
-0.57777309 3.3110116 -0.6250447
-0.57372236 3.3448792 -0.62505573
-0.56416035 3.3448792 -0.62505573
-0.55459827 3.3448792 -0.62505573
-0.54503626 3.3448792 -0.62505573
0.13387862 3.5243819 -0.62511128
0.14391953 3.5243819 -0.62511128
0.15396042 3.5243819 -0.62511128
0.16400132 3.5243819 -0.62511128
0.17404221 3.5243819 -0.62511128
0.1840831 3.5243819 -0.62511128
0.19412401 3.5243819 -0.62511128
0.20416491 3.5243819 -0.62511128
0.2142058 3.5243819 -0.62511128
0.2242467 3.5243819 -0.62511128
0.23428759 3.5243819 -0.62511128
0.2443285 3.5243819 -0.62511128
0.25436938 3.5243819 -0.62511128
0.26441029 3.5243819 -0.62511128
0.2744512 3.5243819 -0.62511128
0.28449208 3.5243819 -0.62511128
0.29453295 3.5243819 -0.62511128
0.30457386 3.5243819 -0.62511128
0.31461477 3.5243819 -0.62511128
0.34473747 3.5243819 -0.62511128
0.35477835 3.5243819 -0.62511128
0.36481926 3.5243819 -0.62511128
0.013523299 3.5624592 -0.62512255
0.03380825 3.5624592 -0.62512255
0.043950725 3.5624592 -0.62512255
0.054093197 3.5624592 -0.62512255
0.064235672 3.5624592 -0.62512255
0.077758975 3.5624592 -0.62512255
0.094663098 3.5624592 -0.62512255
0.10480557 3.5624592 -0.62512255
0.11494805 3.5624592 -0.62512255
0.12509052 3.5624592 -0.62512255
0.32794002 3.5624592 -0.62512255
-0.39618352 3.6013138 -0.62513393
-0.38593739 3.6013138 -0.62513393
-0.37910664 3.6013138 -0.62513393
-0.28347614 3.6013138 -0.62513393
-0.27664539 3.6013138 -0.62513393
-0.26639926 3.6013138 -0.62513393
-0.24249165 3.6013138 -0.62513393
-0.2356609 3.6013138 -0.62513393
-0.22883014 3.6013138 -0.62513393
-0.13319963 3.6013138 -0.62513393
-0.12636888 3.6013138 -0.62513393
-0.11612276 3.6013138 -0.62513393
-0.10587663 3.6013138 -0.62513393
-0.095630504 3.6013138 -0.62513393
-0.085384384 3.6013138 -0.62513393
-0.064892128 3.6013138 -0.62513393
-0.054646004 3.6013138 -0.62513393
-0.044399876 3.6013138 -0.62513393
-0.030738376 3.6013138 -0.62513393
-0.013661501 3.6013138 -0.62513393
-0.0034153752 3.6013138 -0.62513393
0.0034153752 3.6013138 -0.62513393
-0.51414508 3.6409698 -0.62514538
-0.50724381 3.6409698 -0.62514538
-0.49344125 3.6409698 -0.62514538
-0.48653999 3.6409698 -0.62514538
-0.47618806 3.6409698 -0.62514538
-0.46583617 3.6409698 -0.62514538
-0.45548424 3.6409698 -0.62514538
-0.44513234 3.6409698 -0.62514538
-0.43478042 3.6409698 -0.62514538
-0.42442849 3.6409698 -0.62514538
-0.4140766 3.6409698 -0.62514538
-0.36921829 3.6409698 -0.62514538
-0.35541573 3.6409698 -0.62514538
-0.34506381 3.6409698 -0.62514538
-0.33471191 3.6409698 -0.62514538
-0.32436001 3.6409698 -0.62514538
-0.31400809 3.6409698 -0.62514538
-0.30365616 3.6409698 -0.62514538
-0.22429149 3.6409698 -0.62514538
-0.21393958 3.6409698 -0.62514538
-0.19668637 3.6409698 -0.62514538
-0.18633446 3.6409698 -0.62514538
-0.17598255 3.6409698 -0.62514538
-0.16563064 3.6409698 -0.62514538
-0.15527873 3.6409698 -0.62514538
-0.14492682 3.6409698 -0.62514538
-0.024154468 3.6409698 -0.62514538
-0.53345531 3.681452 -0.62515694
-0.52648205 3.681452 -0.62515694
-0.51253551 3.681452 -0.62515694
-0.50556225 3.681452 -0.62515694
-0.46372259 3.681452 -0.62515694
-0.60652888 3.1226499 -0.61940134
-0.58026725 3.2164385 -0.61641335
-0.58487552 3.2811394 -0.61627406
-0.57777309 3.3144059 -0.61620212
-0.53567672 3.3147831 -0.61521959
-0.57372236 3.3483059 -0.61612874
-0.56416035 3.3483059 -0.61612874
-0.55353582 3.3486869 -0.61513686
0.3943395 3.4894342 -0.61891258
0.40428084 3.4894342 -0.61891258
0.063592345 3.5291796 -0.61261255
0.072517596 3.5283802 -0.61469567
0.08367414 3.5279803 -0.6157372
0.097062007 3.5291796 -0.61261255
0.13387862 3.5279803 -0.6157372
0.14391953 3.5279803 -0.6157372
0.15396042 3.5279803 -0.6157372
0.16400132 3.5279803 -0.6157372
0.17404221 3.5279801 -0.6157372
0.1840831 3.5279803 -0.6157372
0.19412401 3.5279801 -0.6157372
0.20416491 3.5279803 -0.6157372
0.2142058 3.5279803 -0.6157372
0.2242467 3.5279803 -0.6157372
0.23428759 3.5279801 -0.6157372
0.2443285 3.5279803 -0.6157372
0.25436938 3.5279801 -0.6157372
0.26441029 3.5279803 -0.6157372
0.2744512 3.5279803 -0.6157372
0.28449208 3.5279803 -0.6157372
0.29453295 3.5279803 -0.6157372
0.30457386 3.5279803 -0.6157372
0.31461477 3.5279801 -0.6157372
0.32465568 3.5291796 -0.61261255
0.33469659 3.5279803 -0.6157372
0.34473747 3.5279803 -0.6157372
0.3536627 3.5275805 -0.61677879
0.36481926 3.5279803 -0.6157372
0.37486017 3.5279801 -0.6157372
0.38490105 3.5279803 -0.6157372
0.39494196 3.5279801 -0.6157372
0.40498284 3.5279803 -0.6157372
0.41502374 3.5279803 -0.6157372
-0.27384683 3.5673056 -0.61249739
-0.26370436 3.5673056 -0.61249739
-0.25356188 3.5660939 -0.61565369
-0.24680023 3.5660939 -0.61565369
-0.077758975 3.5673056 -0.61249739
0.013523299 3.5660939 -0.61565369
0.023665775 3.5660939 -0.61565369
0.03380825 3.5660939 -0.61565369
0.043950725 3.5660939 -0.61565369
0.054093197 3.5660939 -0.61565369
0.091282271 3.5648823 -0.61881
0.10480557 3.5660939 -0.61565369
0.11494805 3.5660939 -0.61565369
0.12509052 3.5648823 -0.61881
-0.39618352 3.6049857 -0.6155684
-0.38593739 3.6049857 -0.6155684
-0.37569124 3.6049857 -0.61556834
-0.35861439 3.6049857 -0.6155684
-0.3176299 3.6062095 -0.61237985
-0.29258382 3.6053936 -0.61450553
-0.28347614 3.6049857 -0.6155684
-0.24249165 3.6049857 -0.6155684
-0.2356609 3.6049857 -0.6155684
-0.22883014 3.6049857 -0.6155684
-0.14344576 3.6062095 -0.61237985
-0.13319963 3.6049857 -0.6155684
-0.12636888 3.6049857 -0.6155684
-0.11612275 3.6049857 -0.6155684
-0.10587663 3.6037617 -0.61875689
-0.096768968 3.6045778 -0.61663121
-0.085384384 3.6037617 -0.61875689
-0.07172288 3.6049857 -0.6155684
-0.064892128 3.6049857 -0.6155684
-0.054646004 3.6049857 -0.6155684
-0.044399876 3.6049857 -0.6155684
-0.034153752 3.6049857 -0.61556834
-0.023907626 3.6062095 -0.61237985
-0.013661502 3.6049857 -0.6155684
-0.0034153752 3.6049857 -0.6155684
0.0034153752 3.6049857 -0.6155684
-0.5210464 3.645916 -0.61225957
-0.51414508 3.6446795 -0.61548102
-0.50379318 3.645916 -0.61225957
-0.49344125 3.6446795 -0.61548102
-0.48653999 3.6446795 -0.61548102
-0.47618806 3.6446795 -0.61548102
-0.46583617 3.6446795 -0.61548102
-0.45203361 3.6446795 -0.61548102
-0.44513234 3.6446795 -0.61548102
-0.43478042 3.6446795 -0.61548102
-0.42442849 3.6434429 -0.61870247
-0.4140766 3.6434429 -0.61870247
-0.36921829 3.6434429 -0.61870247
-0.35541573 3.6446795 -0.61548102
-0.34621403 3.6442673 -0.6165548
-0.33471191 3.6434429 -0.61870247
-0.32781065 3.6434429 -0.61870247
-0.31400809 3.6434429 -0.61870247
-0.30710679 3.6434429 -0.61870247
-0.22429149 3.6434429 -0.61870247
-0.21393958 3.6434429 -0.61870247
-0.20358765 3.6446795 -0.61548102
-0.19668637 3.6446795 -0.61548102
-0.18633446 3.6434429 -0.61870247
-0.17598255 3.6446795 -0.61548102
-0.16563064 3.6446795 -0.61548102
-0.15527873 3.6446795 -0.61548102
-0.024154468 3.645916 -0.61225957
-0.46372259 3.6839509 -0.61864686
0.15574753 3.4965596 -0.60035056
0.16568887 3.4965596 -0.60035056
0.1756302 3.4965596 -0.60035056
0.35457417 3.4953721 -0.60344422
0.36451551 3.4965596 -0.60035056
0.016734829 3.5339775 -0.60011393
0.036816623 3.5339775 -0.60011393
0.043510552 3.5339775 -0.60011393
0.05355145 3.5339775 -0.60011393
0.063592345 3.532778 -0.60323858
0.073633246 3.5327778 -0.60323858
0.08367414 3.5315785 -0.6063633
0.094830692 3.5323782 -0.60428017
0.11714379 3.5339775 -0.60011393
0.12383773 3.532778 -0.60323858
0.13387862 3.5327778 -0.60323858
0.14391953 3.5315785 -0.6063633
0.15061346 3.532778 -0.60323858
0.1840831 3.5315785 -0.6063633
0.19412401 3.532778 -0.60323858
0.20416491 3.532778 -0.60323858
0.2142058 3.5327778 -0.60323858
0.2242467 3.532778 -0.60323858
0.2342876 3.5327778 -0.60323858
0.2443285 3.532778 -0.60323858
0.25436941 3.5327778 -0.60323858
0.26441029 3.532778 -0.60323858
0.2744512 3.5327778 -0.60323858
0.28449208 3.532778 -0.60323858
0.29453295 3.5327778 -0.60323858
0.30457386 3.532778 -0.60323858
0.31461477 3.5327778 -0.60323858
0.32465568 3.532778 -0.60323858
0.33469659 3.5327778 -0.60323858
0.34473747 3.532778 -0.60323858
0.3514314 3.532778 -0.60323858
0.37597582 3.5331776 -0.60219699
0.38490105 3.532778 -0.60323858
0.39494193 3.5327778 -0.60323858
0.40498284 3.532778 -0.60323858
0.41502374 3.5327778 -0.60323858
-0.27384683 3.5697286 -0.6061849
-0.26370436 3.5697286 -0.6061849
-0.25356188 3.5697286 -0.6061849
-0.24680023 3.5697286 -0.6061849
-0.10480557 3.5697286 -0.6061849
-0.091282271 3.5697286 -0.6061849
-0.084520623 3.5697286 -0.6061849
-0.077758975 3.5697286 -0.6061849
0.010142474 3.5697286 -0.6061849
0.023665775 3.5697286 -0.6061849
0.030427424 3.5697286 -0.6061849
0.084520623 3.5697286 -0.6061849
0.091282271 3.5697286 -0.6061849
0.10480557 3.5697286 -0.6061849
0.11156722 3.5697286 -0.6061849
-0.42009115 3.6086576 -0.60600281
-0.4132604 3.6086576 -0.60600281
-0.40642965 3.6086576 -0.60600281
-0.39618352 3.6086576 -0.60600281
-0.38593739 3.6086576 -0.60600281
-0.37569126 3.6086576 -0.60600281
-0.36544514 3.6086576 -0.60600281
-0.35861439 3.6086576 -0.60600281
-0.33470678 3.6086576 -0.60600281
-0.32446066 3.6086576 -0.60600281
-0.31421453 3.6086576 -0.60600281
-0.3039684 3.6086576 -0.60600281
-0.2356609 3.6086576 -0.60600281
-0.22541477 3.6086576 -0.60600281
-0.21516864 3.6086576 -0.60600281
-0.20833789 3.6086576 -0.60600281
-0.18443026 3.6086576 -0.60600281
-0.14344576 3.6086576 -0.60600281
-0.13319963 3.6086576 -0.60600281
-0.12636888 3.6086576 -0.60600281
-0.11612276 3.6086576 -0.60600281
-0.10587663 3.6086576 -0.60600281
-0.09904588 3.6086576 -0.60600281
-0.07172288 3.6086576 -0.60600281
-0.064892128 3.6086576 -0.60600281
-0.054646004 3.6086576 -0.60600281
-0.044399876 3.6086576 -0.60600281
-0.034153752 3.6086576 -0.60600281
-0.013661501 3.6086576 -0.60600281
-0.0034153752 3.6086576 -0.60600281
0.0034153752 3.6086576 -0.60600281
-0.48653999 3.6483893 -0.60581672
-0.47618806 3.6483893 -0.60581672
-0.46583617 3.6483893 -0.60581672
-0.45548424 3.6483893 -0.60581672
-0.44513234 3.6483893 -0.60581672
-0.43478042 3.6483893 -0.60581672
-0.35541573 3.6483893 -0.60581672
-0.34851447 3.6483893 -0.60581672
-0.21048893 3.6483893 -0.60581672
-0.20358765 3.6483893 -0.60581672
-0.19668637 3.6483893 -0.60581672
-0.17598255 3.6483893 -0.60581672
-0.16908127 3.6483893 -0.60581672
-0.15527873 3.6483893 -0.60581672
-0.024154468 3.6483893 -0.60581672
0.14249243 3.4989347 -0.59416324
0.15574753 3.4989347 -0.59416324
0.16568887 3.4989347 -0.59416324
0.1756302 3.4989347 -0.59416324
0.18225776 3.4989347 -0.59416324
0.35457417 3.4989347 -0.59416324
0.36120173 3.4989347 -0.59416324
0.016734829 3.5363765 -0.59386462
0.033469658 3.5363765 -0.59386462
0.043510552 3.5363765 -0.59386462
0.05355145 3.5363765 -0.59386462
0.063592345 3.5363765 -0.59386462
0.073633246 3.5363765 -0.59386462
0.097062007 3.5363765 -0.59386462
0.10375594 3.5363765 -0.59386462
0.11714379 3.5363765 -0.59386462
0.12383773 3.5363765 -0.59386462
0.13387862 3.5363765 -0.59386462
0.14391953 3.5363765 -0.59386462
0.15396042 3.5363765 -0.59386462
0.19412401 3.5363765 -0.59386462
0.20416491 3.5363765 -0.59386462
0.2142058 3.5363765 -0.59386462
0.2242467 3.5363765 -0.59386462
0.23428759 3.5363765 -0.59386462
0.2443285 3.5363765 -0.59386462
0.25436938 3.5363765 -0.59386462
0.26441029 3.5363765 -0.59386462
0.2744512 3.5363765 -0.59386462
0.28449208 3.5363765 -0.59386462
0.29453295 3.5363765 -0.59386462
0.30457386 3.5363765 -0.59386462
0.31461477 3.5363765 -0.59386462
0.32465568 3.5363765 -0.59386462
0.33469659 3.5363765 -0.59386462
0.34473747 3.5363765 -0.59386462
0.3514314 3.5363765 -0.59386462
0.40498284 3.5363765 -0.59386462
-0.29413179 3.5733633 -0.59671605
-0.28398931 3.5721519 -0.59987235
-0.27384683 3.5721519 -0.59987235
-0.26370436 3.5721519 -0.59987235
-0.25356188 3.5733633 -0.59671605
-0.24341941 3.5721519 -0.59987235
-0.091282271 3.5721519 -0.59987235
-0.084520623 3.5733633 -0.59671605
-0.077758975 3.5733633 -0.59671605
0.012396358 3.5737674 -0.59566396
0.023665775 3.5721519 -0.59987235
0.084520623 3.5721519 -0.59987235
0.091282271 3.5721519 -0.59987235
0.11156722 3.5721519 -0.59987235
-0.33470678 3.6123292 -0.59643722
-0.32446066 3.6123295 -0.59643722
-0.31421453 3.6123292 -0.59643716
-0.3039684 3.6123295 -0.59643722
-0.2903069 3.6111054 -0.59962571
-0.28347614 3.6123295 -0.59643722
-0.27664539 3.6123295 -0.59643722
-0.26639926 3.6123295 -0.59643722
-0.24590702 3.6123295 -0.59643722
-0.2356609 3.6123295 -0.59643722
-0.22541477 3.6123292 -0.59643722
-0.21516864 3.6123295 -0.59643722
-0.20833789 3.6135533 -0.59324867
-0.19467638 3.6135533 -0.59324867
-0.18443026 3.6123292 -0.59643716
-0.17418414 3.6135533 -0.59324867
-0.16279955 3.6127374 -0.59537435
-0.15369189 3.6135533 -0.59324867
-0.14344576 3.6123292 -0.59643716
-0.13319963 3.6123295 -0.59643722
-0.12636888 3.6123295 -0.59643722
-0.11612276 3.6123295 -0.59643722
-0.10587663 3.6123295 -0.59643722
-0.095630504 3.6123292 -0.59643716
-0.085384384 3.6135533 -0.59324867
-0.0739998 3.6127374 -0.59537435
-0.064892128 3.6123295 -0.59643722
-0.054646004 3.6123295 -0.59643722
-0.044399876 3.6123295 -0.59643722
-0.034153752 3.6123295 -0.59643722
-0.023907626 3.6135533 -0.59324867
-0.013661501 3.6123295 -0.59643722
-0.0034153752 3.6123295 -0.59643722
0.0034153752 3.6123295 -0.59643722
-0.34851447 3.6508625 -0.59937382
-0.20358765 3.6520991 -0.59615231
-0.19668637 3.6533356 -0.59293085
0.14249243 3.503685 -0.58178848
0.16568887 3.5024977 -0.58488214
0.1756302 3.5024974 -0.58488214
0.18557152 3.5024974 -0.58488214
0.20214042 3.503685 -0.58178848
0.35457417 3.5024974 -0.58488214
0.36341092 3.5021017 -0.58591342
0.37445685 3.5013099 -0.58797586
0.38439816 3.5013099 -0.58797586
0.3943395 3.5013099 -0.58797586
0.40759462 3.5013099 -0.58797586
0.02342876 3.5387752 -0.58761531
0.033469658 3.5387752 -0.58761531
0.043510552 3.5387752 -0.58761531
0.05355145 3.5387752 -0.58761531
0.063592345 3.5387752 -0.58761531
0.073633246 3.5387752 -0.58761531
0.08367414 3.5387752 -0.58761531
0.093715042 3.5387752 -0.58761531
0.10375594 3.5387752 -0.58761531
0.11379683 3.5387752 -0.58761531
0.12383773 3.5387752 -0.58761531
0.13387862 3.5387752 -0.58761531
0.15396042 3.5387752 -0.58761531
0.1840831 3.5387752 -0.58761531
0.19747098 3.5387752 -0.58761531
0.2142058 3.5387752 -0.58761531
0.2242467 3.5387752 -0.58761531
0.23428759 3.5387752 -0.58761531
0.2443285 3.5387752 -0.58761531
0.25436938 3.5387752 -0.58761531
0.26441029 3.5387752 -0.58761531
0.2744512 3.5387752 -0.58761531
0.28449208 3.5387752 -0.58761531
0.29453295 3.5387752 -0.58761531
0.30457386 3.5387752 -0.58761531
0.31461477 3.5387752 -0.58761531
0.32465568 3.5387752 -0.58761531
0.33469659 3.5387752 -0.58761531
0.34473747 3.5387752 -0.58761531
0.3514314 3.5387752 -0.58761531
0.37486017 3.5387752 -0.58761531
0.38490105 3.5387752 -0.58761531
0.39494193 3.5387752 -0.58761531
0.40498284 3.5387752 -0.58761531
0.41502374 3.5387752 -0.58761531
0.02342876 3.5411742 -0.581366
0.033469658 3.5411742 -0.581366
0.043510552 3.5411742 -0.581366
0.05355145 3.5411742 -0.581366
0.063592345 3.5411742 -0.581366
0.073633246 3.5411742 -0.581366
0.08367414 3.5411742 -0.581366
0.093715042 3.5411742 -0.581366
0.10375594 3.5411742 -0.581366
0.11379683 3.5411742 -0.581366
0.12383773 3.5411742 -0.581366
0.13387862 3.5411742 -0.581366
0.15396042 3.5411742 -0.581366
0.17404221 3.5411742 -0.581366
0.1840831 3.5411742 -0.581366
0.19412401 3.5411742 -0.581366
0.20416491 3.5411742 -0.581366
0.2142058 3.5411742 -0.581366
0.2242467 3.5411742 -0.581366
0.23428759 3.5411742 -0.581366
0.2443285 3.5411742 -0.581366
0.25436938 3.5411742 -0.581366
0.26441029 3.5411742 -0.581366
0.2744512 3.5411742 -0.581366
0.28449208 3.5411742 -0.581366
0.29453295 3.5411742 -0.581366
0.30457386 3.5411742 -0.581366
0.31461477 3.5411742 -0.581366
0.33804354 3.5411742 -0.581366
0.38490105 3.5411742 -0.581366
0.39494193 3.5411742 -0.581366
0.40498284 3.5411742 -0.581366
0.41502374 3.5411742 -0.581366
-0.11494805 3.5794213 -0.5809347
-0.10480557 3.5794213 -0.5809347
-0.094663098 3.5794213 -0.5809347
-0.084520623 3.5794213 -0.5809347
-0.077758975 3.5794213 -0.5809347
0.003380825 3.5794213 -0.5809347
0.012396358 3.5778058 -0.58514309
-0.18329179 3.6168172 -0.58474594
-0.17418414 3.6172252 -0.58368313
-0.16507648 3.6168172 -0.58474594
-0.15369189 3.6160011 -0.58687162
-0.13319963 3.6160011 -0.58687162
-0.12636888 3.6160011 -0.58687162
-0.0739998 3.6176331 -0.58262032
-0.064892128 3.6160011 -0.58687162
-0.053507548 3.6168172 -0.58474594
-0.044399876 3.6172252 -0.58368313
-0.034153752 3.6172252 -0.58368313
-0.023907626 3.6172252 -0.58368313
-0.013661501 3.6172252 -0.58368313
-0.0034153752 3.6160011 -0.58687162
0.14249243 3.5060601 -0.57560116
0.16237509 3.5060601 -0.57560116
0.32475019 3.5060601 -0.57560116
0.34463283 3.5060601 -0.57560116
0.35457417 3.5060601 -0.57560116
0.36451551 3.5060601 -0.57560116
0.37445685 3.5060601 -0.57560116
0.016734829 3.5435729 -0.57511663
0.02342876 3.5435729 -0.57511663
0.033469658 3.5435729 -0.57511663
0.043510552 3.5435729 -0.57511663
0.05355145 3.5435729 -0.57511663
0.063592345 3.5435729 -0.57511663
0.073633246 3.5435729 -0.57511663
0.08367414 3.5435729 -0.57511663
0.093715042 3.5435729 -0.57511663
0.10375594 3.5435729 -0.57511663
0.11379683 3.5435729 -0.57511663
0.12383773 3.5435729 -0.57511663
0.13387862 3.5435729 -0.57511663
0.15396042 3.5435729 -0.57511663
0.17404221 3.5435729 -0.57511663
0.1840831 3.5435729 -0.57511663
0.19412401 3.5435729 -0.57511663
0.20416491 3.5435729 -0.57511663
0.2142058 3.5435729 -0.57511663
0.2242467 3.5435729 -0.57511663
0.23094063 3.5435729 -0.57511663
0.2443285 3.5435729 -0.57511663
0.25436938 3.5435729 -0.57511663
0.26441029 3.5435729 -0.57511663
0.2744512 3.5435729 -0.57511663
0.28449208 3.5435729 -0.57511663
0.29453295 3.5435729 -0.57511663
0.30457386 3.5435729 -0.57511663
0.33804354 3.5435729 -0.57511663
0.35812533 3.5435729 -0.57511663
0.36481926 3.5435729 -0.57511663
0.38490105 3.5435729 -0.57511663
0.39494193 3.5435729 -0.57511663
0.40498284 3.5435729 -0.57511663
0.41502374 3.5435729 -0.57511663
-0.003380825 3.5818446 -0.57462215
0.003380825 3.5818446 -0.57462215
0.14249243 3.5084352 -0.56941378
0.16237509 3.5084352 -0.56941378
0.23527819 3.5084352 -0.56941378
0.30818129 3.5084352 -0.56941378
0.31480885 3.5084352 -0.56941378
0.32475019 3.5084352 -0.56941378
0.34463283 3.5084352 -0.56941378
0.36782929 3.5084352 -0.56941378
0.37445685 3.5084352 -0.56941378
0.42084971 3.5084352 -0.56941378
0.13586487 3.5108104 -0.5632264
0.14249243 3.5108104 -0.5632264
0.16568887 3.5108104 -0.5632264
0.23527819 3.5108104 -0.5632264
0.24521953 3.5108104 -0.5632264
0.25516087 3.5108104 -0.5632264
0.2617884 3.5108104 -0.5632264
0.27504352 3.5108104 -0.5632264
0.2949262 3.5108104 -0.5632264
0.30486751 3.5108104 -0.5632264
0.32143641 3.5108104 -0.5632264
0.33469152 3.5108104 -0.5632264
0.34794661 3.5108104 -0.5632264
0.35457417 3.5108104 -0.5632264
0.36451551 3.5108104 -0.5632264
0.37445685 3.5108104 -0.5632264
0.38439816 3.5108104 -0.5632264
0.40759462 3.5108104 -0.5632264
0.08367414 3.5471714 -0.56574267
0.093715042 3.5471714 -0.56574267
0.10375594 3.5471714 -0.56574267
0.11379683 3.5471714 -0.56574267
0.12383773 3.5471714 -0.56574267
0.13053165 3.5471714 -0.56574267
0.15507607 3.5467713 -0.5667842
0.17515786 3.5475712 -0.56470114
0.1840831 3.5471714 -0.56574267
0.19412401 3.5471714 -0.56574267
0.20416491 3.5471714 -0.56574267
0.2142058 3.5471711 -0.56574267
0.2242467 3.5459719 -0.56886733
0.23094063 3.5459719 -0.56886733
0.2744512 3.5471714 -0.56574267
0.28449208 3.5471714 -0.56574267
0.2934173 3.5475712 -0.56470114
0.31796175 3.5471714 -0.56574267
0.33134961 3.5459719 -0.56886733
0.34473747 3.5459719 -0.56886733
0.39828891 3.5459719 -0.56886733
0.40498284 3.5471714 -0.56574267
0.81975776 2.6598468 -0.55325758
0.8299728 2.6598468 -0.55325758
0.83508033 2.6598468 -0.55325758
0.817204 2.6625924 -0.54610515
0.82741904 2.6625924 -0.54610515
0.83508033 2.6625924 -0.54610515
0.81860417 2.6469231 -0.53012967
0.82367289 2.6469231 -0.53012967
0.817204 2.6662531 -0.53656858
0.82741904 2.6653378 -0.53895271
0.83508033 2.6653378 -0.53895271
0.82367289 2.6487396 -0.52539766
0.817204 2.6689985 -0.52941614
0.82486528 2.6689985 -0.52941614
