# .PCD v0.7 - Point Cloud Data file format
VERSION 0.7
FIELDS x y z
SIZE 4 4 4
TYPE F F F
COUNT 1 1 1
WIDTH 1471
HEIGHT 1
VIEWPOINT 0 0 0 1 0 0 0
POINTS 1471
DATA ascii
-0.11639021 2.8137324 -1.1954112
-0.10475118 2.8137324 -1.1954112
-0.093112156 2.8137324 -1.1954112
-0.084382899 2.8137324 -1.1954112
-0.075653628 2.8137324 -1.1954112
-0.064014614 2.8137324 -1.1954112
-0.055285346 2.8137324 -1.1954112
-0.046556078 2.8137324 -1.1954112
-0.03491706 2.8137324 -1.1954112
-0.023278041 2.8137324 -1.1954112
-0.014548775 2.8137324 -1.1954112
-0.0058195102 2.8137324 -1.1954112
0.0029097551 2.8137324 -1.1954112
0.34878531 2.7359786 -1.1808518
0.35445663 2.7349625 -1.1834991
0.36296356 2.7349622 -1.1834991
0.37430617 2.7349625 -1.1834991
0.38564879 2.7349622 -1.1834991
0.39604619 2.7353013 -1.1826167
0.45654014 2.7349625 -1.1834991
0.054338697 2.7614534 -1.1856222
0.061965182 2.76282 -1.1820621
0.074358225 2.7624784 -1.1829522
0.085797951 2.7624784 -1.1829522
0.094377741 2.7624784 -1.1829522
0.10295753 2.7624784 -1.1829522
0.11439726 2.7624784 -1.1829522
0.125837 2.7624784 -1.1829522
0.13441677 2.7624784 -1.1829522
0.14299658 2.7624784 -1.1829522
0.15443631 2.7624784 -1.1829522
0.16587603 2.7624784 -1.1829522
0.17445582 2.7624784 -1.1829522
0.18398893 2.7621367 -1.1838422
0.19447532 2.7624784 -1.1829522
0.20591506 2.7624784 -1.1829522
0.21449485 2.7624784 -1.1829522
0.22307464 2.7624784 -1.1829522
0.23451439 2.7624784 -1.1829522
0.2459541 2.7614534 -1.1856222
0.25453389 2.7614534 -1.1856222
0.26311368 2.7614534 -1.1856222
0.27455342 2.7614534 -1.1856222
0.28694645 2.7621367 -1.1838422
0.29457295 2.7614534 -1.1856222
0.30410603 2.7621367 -1.1838422
0.31459248 2.7624784 -1.1829522
0.32603216 2.7624784 -1.1829522
0.33461198 2.7624784 -1.1829522
0.34223846 2.7621367 -1.1838422
0.42612979 2.7624784 -1.1829522
0.43470958 2.7624784 -1.1829522
0.44614932 2.7624784 -1.1829522
0.45472911 2.7624784 -1.1829522
0.0086538857 2.7894351 -1.1850884
0.014423142 2.7894351 -1.1850884
0.023077028 2.7894351 -1.1850884
0.034615539 2.7894351 -1.1850884
-0.17555523 2.8172083 -1.1863562
-0.16294628 2.8168607 -1.1872618
-0.15421702 2.8168607 -1.1872618
-0.14548776 2.8168607 -1.1872618
-0.13384873 2.8168607 -1.1872617
-0.12511946 2.8168607 -1.1872618
-0.11639021 2.8168607 -1.1872617
-0.10475118 2.8168607 -1.1872618
-0.093112163 2.8168607 -1.1872618
-0.084382899 2.8168607 -1.1872618
-0.075653628 2.8168607 -1.1872618
-0.064014614 2.8168607 -1.1872618
-0.055285346 2.8168607 -1.1872618
-0.046556078 2.8168607 -1.1872618
-0.03491706 2.8168607 -1.1872618
-0.023278041 2.8168607 -1.1872617
-0.014548775 2.8168607 -1.1872618
-0.0058195102 2.8168607 -1.1872618
-0.41779423 2.8461702 -1.185819
-0.39431164 2.8461702 -1.185819
-0.38452724 2.8458195 -1.1867325
-0.37572128 2.8458195 -1.1867325
-0.3630015 2.8454688 -1.187646
-0.35517401 2.8458195 -1.1867325
-0.34930336 2.8458195 -1.1867325
-0.32582077 2.8458195 -1.1867325
-0.31701481 2.8458195 -1.1867325
-0.30527353 2.8458195 -1.1867325
-0.29353222 2.8458195 -1.1867325
-0.28472626 2.8458195 -1.1867325
-0.27689874 2.8454688 -1.187646
-0.2612437 2.8447676 -1.1894729
-0.25537303 2.8458195 -1.1867325
-0.24656707 2.8458195 -1.1867325
-0.23580424 2.8454688 -1.187646
-0.22308449 2.8458195 -1.1867325
-0.1849253 2.8458195 -1.1867325
0.34878531 2.7380109 -1.1755571
0.35445663 2.7380109 -1.1755571
0.36296356 2.7380109 -1.1755571
0.37714183 2.7380109 -1.1755571
0.38564879 2.7380109 -1.1755571
0.39699143 2.7380109 -1.1755571
0.40549839 2.7380109 -1.1755571
0.41400534 2.7380109 -1.1755571
0.45654014 2.7380109 -1.1755571
0.17864613 2.7400434 -1.1702626
0.24386615 2.7400434 -1.1702626
0.25520876 2.7400434 -1.1702626
0.26655138 2.7400434 -1.1702626
0.27505833 2.7400434 -1.1702626
0.28072965 2.7400434 -1.1702626
0.29490793 2.7400434 -1.1702626
0.34594965 2.7400434 -1.1702626
0.35445663 2.7400434 -1.1702626
0.36012793 2.7400434 -1.1702626
0.38564879 2.7400434 -1.1702626
0.39699143 2.7400434 -1.1702626
0.40549839 2.7400434 -1.1702626
0.41400534 2.7400434 -1.1702626
0.45654014 2.7400434 -1.1702626
0.045758903 2.765553 -1.1749423
0.054338697 2.765553 -1.1749423
0.062918492 2.765553 -1.1749423
0.074358225 2.765553 -1.1749423
0.085797951 2.765553 -1.1749423
0.094377741 2.765553 -1.1749423
0.10295753 2.765553 -1.1749423
0.11439726 2.765553 -1.1749423
0.125837 2.765553 -1.1749423
0.13441677 2.765553 -1.1749423
0.14299658 2.765553 -1.1749423
0.15443629 2.765553 -1.1749423
0.16587603 2.765553 -1.1749423
0.18589555 2.765553 -1.1749423
0.19733527 2.765553 -1.1749423
0.20591506 2.765553 -1.1749423
0.21449485 2.765553 -1.1749423
0.22307464 2.765553 -1.1749423
0.23451439 2.765553 -1.1749423
0.24881403 2.765553 -1.1749423
0.30601266 2.765553 -1.1749423
0.31459248 2.765553 -1.1749423
0.32603216 2.765553 -1.1749423
0.33461198 2.765553 -1.1749423
0.34319177 2.765553 -1.1749423
0.42326987 2.765553 -1.1749423
0.43470958 2.765553 -1.1749423
0.44614929 2.765553 -1.1749423
0.45472911 2.765553 -1.1749423
0.0028846285 2.7925363 -1.1770093
0.014423142 2.7915027 -1.1797024
0.023077028 2.7915027 -1.1797024
0.12403902 2.7925363 -1.1770093
-0.34044135 2.819989 -1.1791123
-0.33462182 2.819989 -1.1791123
-0.2647877 2.819989 -1.1791123
-0.21241212 2.819989 -1.1791123
-0.20368284 2.819989 -1.1791123
-0.19495359 2.819989 -1.1791123
-0.18913408 2.819989 -1.1791123
-0.17458531 2.819989 -1.1791123
-0.16294628 2.819989 -1.1791123
-0.15421702 2.819989 -1.1791123
-0.14548776 2.819989 -1.1791123
-0.13384873 2.819989 -1.1791123
-0.12511946 2.819989 -1.1791123
-0.11639021 2.819989 -1.1791123
-0.10475118 2.819989 -1.1791123
-0.093112156 2.819989 -1.1791123
-0.084382899 2.819989 -1.1791123
-0.075653628 2.819989 -1.1791123
-0.064014614 2.819989 -1.1791123
-0.055285346 2.819989 -1.1791123
-0.046556078 2.819989 -1.1791123
-0.03491706 2.819989 -1.1791123
-0.023278041 2.819989 -1.1791123
-0.014548775 2.819989 -1.1791123
-0.36371937 2.8220747 -1.1736794
-0.34044135 2.8220747 -1.1736794
-0.33462182 2.8220747 -1.1736794
-0.32880232 2.8220747 -1.1736794
-0.27060723 2.8220747 -1.1736794
-0.2647877 2.8220747 -1.1736794
-0.2589682 2.8220747 -1.1736794
-0.22987065 2.8220747 -1.1736794
-0.21241212 2.8220747 -1.1736794
-0.20368284 2.8220747 -1.1736794
-0.19495359 2.8220747 -1.1736794
-0.18913408 2.8220747 -1.1736794
-0.17458531 2.8220747 -1.1736794
-0.16294628 2.8220747 -1.1736794
-0.15421702 2.8220747 -1.1736794
-0.14548776 2.8220747 -1.1736794
-0.13384873 2.8220747 -1.1736794
-0.12511946 2.8220747 -1.1736794
-0.11639021 2.8220747 -1.1736794
-0.10475118 2.8220747 -1.1736794
-0.093112156 2.8220747 -1.1736794
-0.084382899 2.8220747 -1.1736794
-0.075653628 2.8220747 -1.1736794
-0.064014614 2.8220747 -1.1736794
-0.055285346 2.8220747 -1.1736794
-0.046556078 2.8220747 -1.1736794
-0.03491706 2.8220747 -1.1736794
-0.023278041 2.8220747 -1.1736794
-0.014548775 2.8220747 -1.1736794
-0.0087292651 2.8220747 -1.1736794
-0.46084562 2.8489752 -1.1785115
-0.45497498 2.8489752 -1.1785115
-0.44910431 2.8489752 -1.1785115
-0.43442771 2.8489752 -1.1785115
-0.42562175 2.8489752 -1.1785115
-0.41681579 2.8489752 -1.1785115
-0.40507448 2.8489752 -1.1785115
-0.3933332 2.8489752 -1.1785115
-0.38452724 2.8489752 -1.1785115
-0.37572128 2.8489752 -1.1785115
-0.36397997 2.8489752 -1.1785115
-0.35517401 2.8489752 -1.1785115
-0.34930336 2.8489752 -1.1785115
-0.31995013 2.8489752 -1.1785115
-0.30233821 2.8489752 -1.1785115
-0.29353225 2.8489752 -1.1785115
-0.28472626 2.8489752 -1.1785115
-0.2612437 2.8489752 -1.1785115
-0.25537303 2.8489752 -1.1785115
-0.24950241 2.8489752 -1.1785115
-0.22601981 2.8489752 -1.1785115
-0.1849253 2.8489752 -1.1785115
-0.73383057 2.8510792 -1.1730307
-0.72502464 2.8510792 -1.1730307
-0.6839301 2.8510792 -1.1730307
-0.67512417 2.8510792 -1.1730307
-0.66338289 2.8510792 -1.1730307
-0.6545769 2.8510792 -1.1730307
-0.46084562 2.8510792 -1.1730307
-0.45497498 2.8510792 -1.1730307
-0.41681579 2.8510792 -1.1730307
-0.40507448 2.8510792 -1.1730307
-0.3933332 2.8510792 -1.1730307
-0.38452724 2.8510792 -1.1730307
-0.37572128 2.8510792 -1.1730307
-0.36397997 2.8510792 -1.1730307
-0.35517401 2.8510792 -1.1730307
-0.34930336 2.8510792 -1.1730307
-0.32582077 2.8510792 -1.1730307
-0.31701481 2.8510792 -1.1730307
-0.30527353 2.8510792 -1.1730307
-0.2905969 2.8510792 -1.1730307
-0.28472626 2.8510792 -1.1730307
-0.2759203 2.8510792 -1.1730307
-0.25537303 2.8510792 -1.1730307
-0.24950241 2.8510792 -1.1730307
-0.56561643 2.878475 -1.1778997
-0.55673242 2.878475 -1.1778997
-0.54488701 2.878475 -1.1778997
-0.53304166 2.878475 -1.1778997
-0.52415764 2.878475 -1.1778997
-0.51527357 2.878475 -1.1778997
-0.50638956 2.878475 -1.1778997
-0.48566017 2.878475 -1.1778997
-0.47381479 2.878475 -1.1778997
-0.7255289 2.8805976 -1.1723704
-0.71664488 2.8805976 -1.1723704
-0.70479953 2.8805976 -1.1723704
-0.69591546 2.8805976 -1.1723704
-0.68703145 2.8805976 -1.1723704
-0.6751861 2.8805976 -1.1723704
-0.66334069 2.8805976 -1.1723704
-0.65445668 2.8805976 -1.1723704
-0.64557266 2.8805976 -1.1723704
-0.63372731 2.8805976 -1.1723704
-0.62484324 2.8805976 -1.1723704
-0.61595923 2.8805976 -1.1723704
-0.60411388 2.8805976 -1.1723704
-0.5952298 2.8805976 -1.1723704
-0.58634579 2.8805976 -1.1723704
-0.57450044 2.8805976 -1.1723704
-0.56561643 2.8805976 -1.1723704
-0.55673242 2.8805976 -1.1723704
-0.54488701 2.8805976 -1.1723704
-0.53304166 2.8805976 -1.1723704
-0.52415764 2.8805976 -1.1723704
-0.51527357 2.8805976 -1.1723704
-0.50342822 2.8805976 -1.1723704
-0.49454418 2.8805976 -1.1723704
-0.48566017 2.8805976 -1.1723704
-0.47381479 2.8805976 -1.1723704
-0.2931729 2.8805976 -1.1723704
-0.33464158 2.9412298 -1.171013
0.366469 2.716306 -1.1621615
0.37396711 2.7169778 -1.1604115
0.17581049 2.7420759 -1.1649679
0.18998875 2.7420759 -1.1649679
0.2410305 2.7420759 -1.1649679
0.25520876 2.7420759 -1.1649679
0.26655138 2.7420759 -1.1649679
0.27505833 2.7420759 -1.1649679
0.28356528 2.7420759 -1.1649679
0.29490793 2.7420759 -1.1649679
0.34878531 2.7420759 -1.1649679
0.35445663 2.7420759 -1.1649679
0.36296356 2.7420759 -1.1649679
0.3743062 2.7420759 -1.1649679
0.38564879 2.7420759 -1.1649679
0.39699143 2.7420759 -1.1649679
0.40549839 2.7420759 -1.1649679
0.41116968 2.7420759 -1.1649679
0.45654014 2.7420759 -1.1649679
0.0085797943 2.7686276 -1.1669323
0.014299657 2.7696526 -1.1642624
0.022879452 2.7696526 -1.1642624
0.034319177 2.7686276 -1.1669323
0.045758903 2.7686276 -1.1669323
0.054338697 2.7686276 -1.1669323
0.062918492 2.7676029 -1.1696023
0.074358225 2.7676029 -1.1696023
0.085797951 2.7686276 -1.1669323
0.094377741 2.7686276 -1.1669323
0.10295753 2.7686276 -1.1669323
0.11439726 2.7686276 -1.1669323
0.12869692 2.7686276 -1.1669323
0.13441677 2.7686276 -1.1669323
0.14299658 2.7686276 -1.1669323
0.15443629 2.7686276 -1.1669323
0.1630161 2.7686276 -1.1669323
0.18589555 2.7686276 -1.1669323
0.1916154 2.7686276 -1.1669323
0.20591506 2.7686276 -1.1669323
0.21449485 2.7686276 -1.1669323
0.22307464 2.7686276 -1.1669323
0.23165445 2.7686276 -1.1669323
0.28885308 2.7696526 -1.1642624
0.29457295 2.7696526 -1.1642624
0.30315274 2.7686276 -1.1669323
0.31459248 2.7686276 -1.1669323
0.32603216 2.7686276 -1.1669323
0.33461198 2.7686276 -1.1669323
0.34319174 2.7686276 -1.1669323
0.35463148 2.7686276 -1.1669323
0.36702454 2.7689693 -1.1660423
0.37465101 2.7686276 -1.1669323
0.38323081 2.7686276 -1.1669323
0.39467052 2.7686276 -1.1669323
0.40611029 2.7686276 -1.1669323
0.41469005 2.7686276 -1.1669323
0.42326987 2.7686276 -1.1669323
0.43470958 2.7686276 -1.1669323
0.44614932 2.7686276 -1.1669323
0.45472911 2.7686276 -1.1669323
-0.0048077144 2.7963269 -1.1671349
0.0028846285 2.7966714 -1.1662372
0.31442451 2.7977052 -1.1635442
0.32307839 2.7977052 -1.1635442
0.33173227 2.7977052 -1.1635442
0.39519408 2.7977052 -1.1635442
0.40288648 2.7970161 -1.1653396
0.43557888 2.7977052 -1.1635442
-0.44519252 2.8262455 -1.1628133
-0.43743315 2.8255503 -1.1646242
-0.42482424 2.8262455 -1.1628133
-0.34044135 2.8252029 -1.1655297
-0.33462182 2.8252029 -1.1655297
-0.32686248 2.8248551 -1.1664352
-0.31134379 2.8241601 -1.1682463
-0.30552429 2.8241601 -1.1682463
-0.29388526 2.8262455 -1.1628133
-0.27351698 2.8241601 -1.1682463
-0.2647877 2.8252029 -1.1655297
-0.2589682 2.8262455 -1.1628133
-0.24150966 2.8252029 -1.1655297
-0.23569016 2.8252029 -1.1655297
-0.22793083 2.8255503 -1.1646243
-0.21532187 2.8252027 -1.1655297
-0.20368284 2.8252027 -1.1655297
-0.19495359 2.8252029 -1.1655297
-0.18719423 2.8255503 -1.1646242
-0.17458531 2.8252029 -1.1655297
-0.16294628 2.8252029 -1.1655297
-0.15421702 2.8252029 -1.1655297
-0.14548776 2.8252029 -1.1655297
-0.13384873 2.8252027 -1.1655297
-0.12511946 2.8252029 -1.1655297
-0.1163902 2.8252029 -1.1655297
-0.10475118 2.8252027 -1.1655297
-0.093112156 2.8252027 -1.1655297
-0.084382899 2.8252029 -1.1655297
-0.075653628 2.8252027 -1.1655297
-0.064014614 2.8252029 -1.1655297
-0.055285346 2.8252029 -1.1655297
-0.046556078 2.8252027 -1.1655297
-0.03491706 2.8252027 -1.1655297
-0.023278039 2.8252027 -1.1655297
-0.014548775 2.8252029 -1.1655297
-0.0058195102 2.8252027 -1.1655297
0.39863643 2.8252029 -1.1655297
0.40445596 2.8252029 -1.1655297
0.41027546 2.8262455 -1.1628133
-0.73383057 2.8542349 -1.1648097
-0.72502464 2.853183 -1.16755
-0.6839301 2.853183 -1.16755
-0.67512417 2.853183 -1.16755
-0.66044754 2.853183 -1.16755
-0.6545769 2.853183 -1.16755
-0.39039788 2.8542349 -1.1648097
-0.38452724 2.8542349 -1.1648097
-0.37572128 2.853183 -1.16755
-0.35517401 2.853183 -1.16755
-0.31799325 2.8545856 -1.1638962
-0.30527353 2.8542349 -1.1648097
-0.29451069 2.8538845 -1.1657232
-0.28472626 2.8542349 -1.1648097
-0.2759203 2.8542349 -1.1648097
-0.26417902 2.8542349 -1.1648097
-0.25537303 2.8542349 -1.1648097
-0.24656707 2.8542349 -1.1648097
-0.23482579 2.8542349 -1.1648097
-0.22406293 2.8545856 -1.1638962
-0.21427853 2.8552868 -1.1620693
-0.085124351 2.8552868 -1.1620693
-0.073383056 2.8552868 -1.1620693
-0.067512415 2.8552868 -1.1620693
-0.055771124 2.8552868 -1.1620693
-0.046965159 2.8552868 -1.1620693
0.40213916 2.8552868 -1.1620693
-0.71664488 2.883781 -1.1640766
-0.70479947 2.883781 -1.1640766
-0.69591546 2.8837812 -1.1640766
-0.68703145 2.8837812 -1.1640764
-0.67419893 2.8834274 -1.1649981
-0.66334069 2.883781 -1.1640766
-0.65445668 2.8837812 -1.1640766
-0.64557266 2.883781 -1.1640766
-0.63471442 2.8834274 -1.1649981
-0.62484324 2.88272 -1.1668411
-0.61595923 2.88272 -1.1668411
-0.60411388 2.883781 -1.1640766
-0.5952298 2.8837812 -1.1640766
-0.58634579 2.883781 -1.1640766
-0.57450044 2.8837812 -1.1640766
-0.56561643 2.8837812 -1.1640766
-0.55673242 2.88272 -1.1668411
-0.53304166 2.88272 -1.1668411
-0.52415764 2.8837812 -1.1640766
-0.51527357 2.8837812 -1.1640764
-0.50244111 2.884135 -1.163155
-0.49454418 2.8837812 -1.1640766
-0.48566017 2.883781 -1.1640766
-0.4748019 2.884135 -1.163155
-0.31094095 2.8848424 -1.1613119
-0.2931729 2.8837812 -1.1640766
-0.28428888 2.8848424 -1.1613119
-0.27540484 2.8848424 -1.1613119
-0.25467545 2.8848424 -1.1613119
-0.068110876 2.8848424 -1.1613119
-0.056265507 2.8848424 -1.1613119
-0.48701581 2.9149261 -1.1605405
-0.47506452 2.9149261 -1.1605405
-0.31372184 2.9149261 -1.1605405
-0.29579487 2.9138553 -1.1633298
-0.28782734 2.9142122 -1.1624001
-0.27786791 2.9149261 -1.1605405
-0.06872002 2.9149261 -1.1605405
-0.056768715 2.9149261 -1.1605405
-0.33464158 2.9433906 -1.1653838
0.059548713 2.7461407 -1.1543787
0.065220021 2.7461407 -1.1543787
0.073726974 2.7461407 -1.1543787
0.16730352 2.7451243 -1.1570261
0.17581049 2.7451243 -1.1570261
0.19566005 2.7451243 -1.1570261
0.23535919 2.7451243 -1.1570261
0.24386615 2.7451243 -1.1570259
0.25520876 2.7451243 -1.1570259
0.26655138 2.7451243 -1.1570261
0.27505833 2.7451243 -1.1570261
0.28262007 2.7447855 -1.1579084
0.29207227 2.7441082 -1.1596733
0.36012793 2.7441082 -1.1596733
0.45654014 2.7451243 -1.1570261
0.0085797943 2.7727275 -1.1562524
0.014299657 2.7727275 -1.1562524
0.022879452 2.7727275 -1.1562524
0.034319177 2.7727275 -1.1562524
0.045758903 2.7727275 -1.1562524
0.054338697 2.7727275 -1.1562524
0.094377741 2.7717025 -1.1589224
0.10391084 2.7723858 -1.1571424
0.11439726 2.7727275 -1.1562524
0.125837 2.7727275 -1.1562524
0.13441677 2.7727275 -1.1562524
0.14299658 2.7727275 -1.1562524
0.15443629 2.7727275 -1.1562525
0.16587603 2.7737525 -1.1535825
0.18303561 2.7737525 -1.1535825
0.19447532 2.7727275 -1.1562525
0.20591506 2.7727275 -1.1562525
0.21449485 2.7727275 -1.1562524
0.22307464 2.7727275 -1.1562524
0.23451439 2.7727275 -1.1562524
0.2459541 2.7727275 -1.1562524
0.25453389 2.7737525 -1.1535825
0.28694645 2.7730691 -1.1553625
0.29457295 2.7727275 -1.1562524
0.30315274 2.7727275 -1.1562525
0.31459248 2.7717025 -1.1589224
0.32603216 2.7717025 -1.1589224
0.33461198 2.7727275 -1.1562524
0.34319177 2.7727275 -1.1562524
0.35463148 2.7727275 -1.1562525
0.36607122 2.7727275 -1.1562525
0.37465101 2.7727275 -1.1562524
0.38323081 2.7727275 -1.1562524
0.3918106 2.7717025 -1.1589224
0.4070636 2.7723858 -1.1571424
0.41469005 2.7727275 -1.1562524
0.42326987 2.7727275 -1.1562525
0.4356629 2.7723858 -1.1571424
0.44614932 2.7727275 -1.1562524
0.45472911 2.7727275 -1.1562524
0.0028846285 2.7997727 -1.1581581
0.014423142 2.7997727 -1.1581581
0.0201924 2.7997727 -1.1581581
0.30577061 2.7997727 -1.1581581
0.31442451 2.7997727 -1.1581581
0.32307839 2.7997727 -1.1581581
0.3346169 2.7997727 -1.1581581
0.36634782 2.7997727 -1.1581581
0.3750017 2.7997727 -1.1581581
0.3865402 2.7997727 -1.1581581
0.40673262 2.7997727 -1.1581581
0.41250187 2.7997727 -1.1581581
0.426925 2.7997727 -1.1581581
0.43557888 2.7997727 -1.1581581
0.44423279 2.7997727 -1.1581581
0.4557713 2.7997727 -1.1581581
0.005769257 2.8018403 -1.1527721
0.014423142 2.8018403 -1.1527721
0.023077028 2.8018403 -1.1527721
0.12980828 2.8018403 -1.1527721
0.13557753 2.8018403 -1.1527721
0.14423142 2.8018403 -1.1527721
0.15576994 2.8018403 -1.1527721
0.28557822 2.8018403 -1.1527721
0.2942321 2.8018403 -1.1527721
0.30577061 2.8018403 -1.1527721
0.31442451 2.8018403 -1.1527721
0.32307839 2.8018403 -1.1527721
0.3346169 2.8018403 -1.1527721
0.34327078 2.8018403 -1.1527721
0.36346319 2.8018403 -1.1527721
0.3750017 2.8018403 -1.1527721
0.3865402 2.8018403 -1.1527721
0.4153865 2.8018403 -1.1527721
0.426925 2.8018403 -1.1527721
0.43557888 2.8018403 -1.1527721
0.44423279 2.8018403 -1.1527721
0.4557713 2.8018403 -1.1527721
-0.45392179 2.8283312 -1.1573803
-0.44519252 2.8283312 -1.1573803
-0.43646324 2.8283312 -1.1573803
-0.42482424 2.8283312 -1.1573803
-0.41318521 2.8283312 -1.1573803
-0.40445596 2.8283312 -1.1573803
-0.39572668 2.8283312 -1.1573803
-0.36371937 2.8283312 -1.1573803
-0.35789987 2.8283312 -1.1573803
-0.3433511 2.8283312 -1.1573803
-0.33462182 2.8283312 -1.1573803
-0.32589257 2.8283312 -1.1573803
-0.31134379 2.8283312 -1.1573803
-0.21532187 2.8283312 -1.1573803
-0.20368284 2.8283312 -1.1573803
-0.19495359 2.8283312 -1.1573803
-0.18622431 2.8283312 -1.1573803
-0.17458531 2.8283312 -1.1573803
-0.16294628 2.8283312 -1.1573803
-0.15421702 2.8283312 -1.1573803
-0.14548776 2.8283312 -1.1573803
-0.13384873 2.8283312 -1.1573803
-0.12511946 2.8283312 -1.1573803
-0.11639021 2.8283312 -1.1573803
-0.10475118 2.8283312 -1.1573803
-0.093112156 2.8283312 -1.1573803
-0.084382899 2.8283312 -1.1573803
-0.075653628 2.8283312 -1.1573803
-0.064014614 2.8283312 -1.1573803
-0.055285346 2.8283312 -1.1573803
-0.046556078 2.8283312 -1.1573803
-0.03491706 2.8283312 -1.1573803
-0.023278041 2.8283312 -1.1573803
-0.014548775 2.8283312 -1.1573803
-0.0058195102 2.8283312 -1.1573803
0.0029097551 2.8283312 -1.1573803
0.39572668 2.8283312 -1.1573803
0.40445596 2.8283312 -1.1573803
0.41318521 2.8283312 -1.1573803
0.42482424 2.8283312 -1.1573803
0.43937302 2.8283312 -1.1573803
-0.45392179 2.8304167 -1.1519474
-0.44519252 2.8304167 -1.1519474
-0.43646324 2.8304167 -1.1519474
-0.42482424 2.8304167 -1.1519474
-0.41318521 2.8304167 -1.1519474
-0.40445596 2.8304167 -1.1519474
-0.39572668 2.8304167 -1.1519474
-0.3753584 2.8304167 -1.1519474
-0.36662912 2.8304167 -1.1519474
-0.35499012 2.8304167 -1.1519474
-0.3433511 2.8304167 -1.1519474
-0.33462182 2.8304167 -1.1519474
-0.32589257 2.8304167 -1.1519474
-0.20368284 2.8304167 -1.1519474
-0.19495359 2.8304167 -1.1519474
-0.18622431 2.8304167 -1.1519474
-0.17458531 2.8304167 -1.1519474
-0.16294628 2.8304167 -1.1519474
-0.15421702 2.8304167 -1.1519474
-0.14548776 2.8304167 -1.1519474
-0.13384873 2.8304167 -1.1519474
-0.12511946 2.8304167 -1.1519474
-0.11639021 2.8304167 -1.1519474
-0.10475118 2.8304167 -1.1519474
-0.093112156 2.8304167 -1.1519474
-0.078563385 2.8304167 -1.1519474
-0.061104856 2.8304167 -1.1519474
-0.03491706 2.8304167 -1.1519474
-0.023278041 2.8304167 -1.1519474
-0.014548775 2.8304167 -1.1519474
-0.0058195102 2.8304167 -1.1519474
0.0029097551 2.8304167 -1.1519474
0.28806576 2.8304167 -1.1519474
0.29679501 2.8304167 -1.1519474
0.30552429 2.8304167 -1.1519474
0.31425354 2.8304167 -1.1519474
0.32589257 2.8304167 -1.1519474
0.33462182 2.8304167 -1.1519474
0.34044135 2.8304167 -1.1519474
0.3695389 2.8304167 -1.1519474
0.3753584 2.8304167 -1.1519474
0.38408768 2.8304167 -1.1519474
0.39281693 2.8304167 -1.1519474
0.40445596 2.8304167 -1.1519474
0.41318521 2.8304167 -1.1519474
0.42482424 2.8304167 -1.1519474
0.43646324 2.8304167 -1.1519474
0.45392179 2.8304167 -1.1519474
-0.73383057 2.8584425 -1.1538482
-0.72502464 2.8584425 -1.1538482
-0.719154 2.8584425 -1.1538482
-0.62522364 2.8594944 -1.1511079
-0.61641765 2.8594944 -1.1511079
-0.60761172 2.8594944 -1.1511079
-0.55477595 2.8594944 -1.1511079
-0.54499149 2.8587933 -1.1529348
-0.53520709 2.8587933 -1.1529347
-0.52542269 2.8594944 -1.1511079
-0.50194013 2.8573906 -1.1565886
-0.46378094 2.8584425 -1.1538482
-0.45497498 2.8594944 -1.1511079
-0.39235476 2.8587933 -1.1529348
-0.38452724 2.8584425 -1.1538482
-0.3786566 2.8594944 -1.1511079
-0.31701481 2.8584425 -1.1538482
-0.30429509 2.8580921 -1.1547617
-0.29646757 2.8584425 -1.1538482
-0.28472626 2.8573906 -1.1565886
-0.2759203 2.8573906 -1.1565886
-0.26515746 2.8587933 -1.1529347
-0.25537303 2.8573906 -1.1565886
-0.24558862 2.8580921 -1.1547617
-0.23482579 2.8584425 -1.1538482
-0.22308449 2.8584425 -1.1538482
-0.21427853 2.8584425 -1.1538482
-0.206451 2.8587933 -1.1529348
-0.19079596 2.8594944 -1.1511079
-0.1849253 2.8584425 -1.1538482
-0.17611934 2.8594944 -1.1511079
-0.16437805 2.8594944 -1.1511079
-0.15557209 2.8594944 -1.1511079
-0.14970145 2.8594944 -1.1511079
-0.12328354 2.8594944 -1.1511079
-0.11447757 2.8594944 -1.1511079
-0.1056716 2.8594944 -1.1511079
-0.093930319 2.8594944 -1.1511079
-0.085124351 2.8594944 -1.1511079
-0.075339943 2.8587933 -1.1529347
-0.063598655 2.8580921 -1.1547617
-0.055771124 2.8573906 -1.1565886
-0.046965159 2.8584425 -1.1538482
-0.035223871 2.8584425 -1.1538482
-0.02348258 2.8594944 -1.1511079
-0.014676612 2.8594944 -1.1511079
-0.0058706449 2.8594944 -1.1511079
0.0029353225 2.8594944 -1.1511079
0.14676613 2.8594944 -1.1511079
0.17318402 2.8594944 -1.1511079
0.2759203 2.8594944 -1.1511079
0.28472626 2.8594944 -1.1511079
0.29353225 2.8594944 -1.1511079
0.30625197 2.8587933 -1.1529348
0.31701481 2.8594944 -1.1511079
0.32582077 2.8594944 -1.1511079
0.33462673 2.8594944 -1.1511079
0.34343272 2.8594944 -1.1511079
0.3786566 2.8594944 -1.1511079
0.40507448 2.8584425 -1.1538482
0.41583738 2.8587933 -1.1529347
0.42562175 2.8584425 -1.1538482
0.43344927 2.8587933 -1.1529347
0.44323367 2.8584425 -1.1538482
-0.71368355 2.8880262 -1.1530179
-0.70479953 2.8880262 -1.1530179
-0.69591546 2.8880262 -1.1530179
-0.68703145 2.8880262 -1.1530179
-0.6751861 2.8880262 -1.1530179
-0.66334069 2.8880262 -1.1530179
-0.63668865 2.886965 -1.1557826
-0.60312676 2.8876724 -1.1539394
-0.58338445 2.8880262 -1.1530179
-0.5715391 2.8890874 -1.1502532
-0.56561643 2.8890874 -1.1502532
-0.53600299 2.8890874 -1.1502532
-0.52415764 2.8880262 -1.1530179
-0.51527357 2.8880262 -1.1530179
-0.50342822 2.8880262 -1.1530179
-0.49454418 2.8880262 -1.1530179
-0.48664728 2.8876724 -1.1539394
-0.4748019 2.8876724 -1.1539394
-0.3760905 2.8890874 -1.1502532
-0.34055439 2.8890874 -1.1502532
-0.33463171 2.8890874 -1.1502532
-0.32278633 2.8890874 -1.1502532
-0.31488943 2.8876724 -1.1539394
-0.30501828 2.8880262 -1.1530179
-0.2990956 2.8880262 -1.1530179
-0.28132755 2.886965 -1.1557826
-0.27540484 2.886965 -1.1557826
-0.26750794 2.8883801 -1.1520963
-0.25467545 2.8880262 -1.1530179
-0.24579142 2.8890874 -1.1502532
-0.23690739 2.8890874 -1.1502532
-0.22407492 2.8883801 -1.1520963
-0.21420377 2.8883801 -1.1520963
-0.20433263 2.8890874 -1.1502532
-0.19248725 2.8880262 -1.1530179
-0.18360323 2.8880262 -1.1530179
-0.1747192 2.8890874 -1.1502532
-0.16583517 2.8890874 -1.1502532
-0.15398981 2.8890874 -1.1502532
-0.12437639 2.8890874 -1.1502532
-0.11549236 2.8890874 -1.1502532
-0.10660833 2.8890874 -1.1502532
-0.094762959 2.8880262 -1.1530179
-0.085878931 2.8890874 -1.1502532
-0.076007791 2.8883801 -1.1520963
-0.065149531 2.8880262 -1.1530179
-0.053304166 2.8880262 -1.1530179
-0.044420138 2.8880262 -1.1530179
-0.035536107 2.8880262 -1.1530179
-0.02369074 2.8890874 -1.1502532
-0.014806712 2.8890874 -1.1502532
-0.0049355705 2.8883801 -1.1520963
0.0029613425 2.8890874 -1.1502532
0.14510578 2.8890874 -1.1502532
0.1747192 2.8890874 -1.1502532
0.19840994 2.8890874 -1.1502532
0.20433263 2.8890874 -1.1502532
0.27540484 2.8890874 -1.1502532
0.28132755 2.8890874 -1.1502532
0.29613423 2.8890874 -1.1502532
0.30501828 2.8890874 -1.1502532
0.31390232 2.8890874 -1.1502532
0.32574767 2.8890874 -1.1502532
0.33463171 2.8890874 -1.1502532
0.34450284 2.8883801 -1.1520963
0.3553611 2.8890874 -1.1502532
0.36424512 2.8890874 -1.1502532
0.37016782 2.8890874 -1.1502532
0.4057039 2.8890874 -1.1502532
0.41458794 2.8890874 -1.1502532
0.42742041 2.8883801 -1.1520963
0.43531734 2.8880262 -1.1530179
-0.34360012 2.9170675 -1.1549617
-0.33762446 2.9170675 -1.1549617
-0.32567316 2.9170675 -1.1549617
-0.31670967 2.9170675 -1.1549617
-0.30475837 2.9170675 -1.1549617
-0.29579487 2.9170675 -1.1549617
-0.28683141 2.9170675 -1.1549617
-0.27488011 2.9170675 -1.1549617
-0.25695312 2.9170675 -1.1549617
-0.23603834 2.9170675 -1.1549617
-0.22408703 2.9170675 -1.1549617
-0.21512356 2.9170675 -1.1549617
-0.20616007 2.9170675 -1.1549617
-0.19420876 2.9170675 -1.1549617
-0.18524528 2.9170675 -1.1549617
-0.15237918 2.9170675 -1.1549617
-0.12548873 2.9170675 -1.1549617
-0.11652526 2.9170675 -1.1549617
-0.092622638 2.9170675 -1.1549617
-0.074695677 2.9170675 -1.1549617
-0.065732196 2.9170675 -1.1549617
-0.053780891 2.9170675 -1.1549617
-0.044817407 2.9170675 -1.1549617
-0.035853926 2.9170675 -1.1549617
-0.026890444 2.9170675 -1.1549617
0.34658796 2.9170675 -1.1549617
-0.61200213 2.9477122 -1.1541257
-0.60597259 2.9477122 -1.1541257
-0.59391344 2.9477122 -1.1541257
-0.53361762 2.9477122 -1.1541257
-0.52457327 2.9477122 -1.1541257
-0.51552892 2.9477122 -1.1541257
-0.50648451 2.9477122 -1.1541257
-0.34368593 2.9477122 -1.1541257
-0.33464158 2.9477122 -1.1541257
-0.31655282 2.9477122 -1.1541257
-0.22309437 2.9477122 -1.1541257
-0.21405001 2.9477122 -1.1541257
-0.20500565 2.9477122 -1.1541257
-0.19596128 2.9477122 -1.1541257
-0.18691692 2.9477122 -1.1541257
-0.066325352 2.9477122 -1.1541257
-0.054266199 2.9477122 -1.1541257
-0.045221832 2.9477122 -1.1541257
-0.036177464 2.9477122 -1.1541257
-0.0271331 2.9477122 -1.1541257
-0.2220836 2.9789147 -1.1532743
-0.21599911 2.9789147 -1.1532743
-0.20991464 2.9789147 -1.1532743
-0.06388706 2.9789147 -1.1532743
-0.054760337 2.9789147 -1.1532743
-0.045633614 2.9789147 -1.1532743
-0.036506891 2.9789147 -1.1532743
-0.02738017 2.9789147 -1.1532743
0.35594219 2.9789147 -1.1532743
-0.052193351 3.0084894 -1.1581395
-0.046052955 3.0084894 -1.1581395
-0.29166871 3.01069 -1.1524069
-0.20570321 3.01069 -1.1524069
-0.19649261 3.01069 -1.1524069
-0.064474143 3.01069 -1.1524069
-0.055263549 3.01069 -1.1524069
-0.046052955 3.01069 -1.1524069
-0.036842365 3.01069 -1.1524069
-0.024561577 3.01069 -1.1524069
0.35921305 3.01069 -1.1524069
0.39605543 3.01069 -1.1524069
-0.53607005 3.0430534 -1.1515232
-0.52677399 3.0430534 -1.1515232
-0.51437932 3.0430534 -1.1515232
-0.50508332 3.0430534 -1.1515232
-0.49578732 3.0430534 -1.1515232
-0.29437372 3.0419431 -1.1544161
-0.26648569 3.0430534 -1.1515232
-0.23549896 3.0430534 -1.1515232
-0.2231043 3.0430534 -1.1515232
-0.21380827 3.0430534 -1.1515232
-0.20451227 3.0430534 -1.1515232
-0.074368089 3.0430534 -1.1515232
-0.065072082 3.0430534 -1.1515232
-0.055776071 3.0430534 -1.1515232
-0.043381389 3.0430534 -1.1515232
-0.034085378 3.0430534 -1.1515232
-0.024789365 3.0430534 -1.1515232
-0.54108804 3.0760221 -1.1506226
-0.53483272 3.0760221 -1.1506226
-0.50668359 3.0760221 -1.1506226
-0.4973006 3.0760221 -1.1506226
0.059548713 2.748173 -1.1490841
0.065220021 2.748173 -1.1490841
0.073726974 2.748173 -1.1490841
0.085069589 2.748173 -1.1490841
0.16446787 2.748173 -1.1490841
0.17581049 2.748173 -1.1490841
0.18431744 2.748173 -1.1490841
0.25520876 2.748173 -1.1490841
0.26655138 2.748173 -1.1490841
0.27505833 2.748173 -1.1490841
0.28072965 2.748173 -1.1490841
0.45654014 2.748173 -1.1490841
0.059548713 2.7502055 -1.1437894
0.065220021 2.7502055 -1.1437894
0.073726974 2.7502055 -1.1437894
0.085069589 2.7502055 -1.1437894
0.096412197 2.7502055 -1.1437894
0.17297482 2.7502055 -1.1437894
0.25804442 2.7502055 -1.1437894
0.26655138 2.7502055 -1.1437894
0.27505833 2.7502055 -1.1437894
0.0085797943 2.7758021 -1.1482425
0.025739383 2.7758021 -1.1482425
0.034319177 2.7768271 -1.1455725
0.045758903 2.7768271 -1.1455725
0.054338697 2.7768271 -1.1455725
0.06005856 2.7778521 -1.1429026
0.085797951 2.7778521 -1.1429026
0.094377741 2.7768271 -1.1455725
0.10295753 2.7768271 -1.1455725
0.11439726 2.7768273 -1.1455725
0.12488368 2.7764854 -1.1464626
0.13441677 2.7758021 -1.1482425
0.14299658 2.7758021 -1.1482425
0.15443629 2.7758021 -1.1482425
0.16587602 2.7768273 -1.1455725
0.17445582 2.7768271 -1.1455725
0.18303561 2.7768273 -1.1455725
0.19447532 2.7768273 -1.1455725
0.20591506 2.7768273 -1.1455725
0.21449485 2.7768271 -1.1455725
0.22307464 2.7768271 -1.1455725
0.23451439 2.7768271 -1.1455725
0.24595411 2.7768273 -1.1455725
0.25453389 2.7768271 -1.1455725
0.26311368 2.7768271 -1.1455725
0.27455342 2.7768273 -1.1455725
0.28599316 2.7758021 -1.1482425
0.29457295 2.7758021 -1.1482425
0.34414506 2.7764854 -1.1464626
0.3536782 2.7764854 -1.1464626
0.41469005 2.7758021 -1.1482425
0.0086538857 2.8049414 -1.1446929
0.014423142 2.8049414 -1.1446929
0.022115484 2.8052862 -1.1437953
0.034615539 2.8059752 -1.142
0.046154052 2.8059752 -1.142
0.11634668 2.8052862 -1.1437953
0.12692365 2.8049414 -1.1446929
0.13557753 2.8049414 -1.1446929
0.14423142 2.8049414 -1.1446929
0.15576994 2.8049414 -1.1446929
0.16442382 2.8049414 -1.1446929
0.1730777 2.8049414 -1.1446929
0.18365468 2.8052862 -1.1437954
0.19615474 2.8059752 -1.142
0.20480862 2.8049414 -1.1446929
0.2134625 2.8049414 -1.144693
0.22500102 2.8049414 -1.144693
0.23653953 2.8049414 -1.1446929
0.24519342 2.8049414 -1.1446929
0.2538473 2.8049414 -1.144693
0.26538581 2.8049414 -1.144693
0.27692434 2.8049414 -1.144693
0.28557822 2.8039076 -1.147386
0.2942321 2.8039076 -1.147386
0.30577061 2.8039076 -1.147386
0.31442451 2.8039076 -1.147386
0.32307839 2.8039076 -1.147386
0.3346169 2.8039076 -1.147386
0.34615541 2.8049414 -1.144693
0.35480928 2.8049414 -1.1446929
0.36250165 2.8045969 -1.1455907
0.3750017 2.8039076 -1.147386
0.38365558 2.8039076 -1.147386
0.42980963 2.8039076 -1.147386
0.44327125 2.8045969 -1.1455907
0.45673284 2.8045969 -1.1455907
-0.45392179 2.8325021 -1.1465144
-0.44519252 2.833545 -1.1437979
-0.43646324 2.833545 -1.1437979
-0.42482424 2.833545 -1.1437979
-0.41318521 2.833545 -1.1437979
-0.40445596 2.833545 -1.1437979
-0.3966966 2.8331974 -1.1447034
-0.3753584 2.8325021 -1.1465144
-0.36662912 2.833545 -1.1437979
-0.35499012 2.833545 -1.1437979
-0.3433511 2.833545 -1.1437979
-0.33462182 2.833545 -1.1437979
-0.32589257 2.833545 -1.1437979
-0.2589682 2.8325021 -1.1465144
-0.20077309 2.8325021 -1.1465144
-0.19495359 2.833545 -1.1437979
-0.18913408 2.8325021 -1.1465144
-0.17458531 2.8325021 -1.1465144
-0.16294628 2.8325021 -1.1465144
-0.15421702 2.8325021 -1.1465144
-0.14451784 2.8331974 -1.1447034
-0.13384873 2.833545 -1.1437979
-0.12511946 2.8325021 -1.1465144
-0.11639021 2.8325021 -1.1465144
-0.10475118 2.8325021 -1.1465144
-0.093112156 2.8325021 -1.1465144
-0.084382899 2.8325021 -1.1465144
-0.078563385 2.8325021 -1.1465144
-0.023278041 2.8325021 -1.1465144
-0.014548775 2.8325021 -1.1465144
-0.0058195102 2.8325021 -1.1465144
0.0058195102 2.833545 -1.1437979
0.014548775 2.8345878 -1.1410815
0.020368285 2.8345878 -1.1410815
0.13384873 2.8345878 -1.1410815
0.14548776 2.8325021 -1.1465144
0.15421702 2.833545 -1.1437979
0.16294628 2.833545 -1.1437979
0.17458531 2.833545 -1.1437979
0.18622431 2.833545 -1.1437979
0.19495359 2.833545 -1.1437979
0.20368284 2.833545 -1.1437979
0.21532187 2.8345878 -1.1410815
0.24441943 2.8345878 -1.1410815
0.25605845 2.8345878 -1.1410815
0.2647877 2.833545 -1.1437979
0.27351698 2.8325021 -1.1465144
0.28515601 2.8325021 -1.1465144
0.29679501 2.8325021 -1.1465144
0.31425354 2.8325021 -1.1465144
0.32589257 2.8325021 -1.1465144
0.33462182 2.8325021 -1.1465144
0.34432101 2.8331974 -1.1447034
0.35499012 2.8345878 -1.1410815
0.36759904 2.8338926 -1.1428924
0.3753584 2.8325021 -1.1465144
0.38408768 2.833545 -1.1437979
0.39281693 2.833545 -1.1437979
0.41609496 2.8325021 -1.1465144
0.43355349 2.8325021 -1.1465144
0.44519252 2.833545 -1.1437979
0.45392179 2.8325021 -1.1465144
-0.73383057 2.8626504 -1.1428868
-0.72502464 2.8626504 -1.1428868
-0.71621865 2.8626504 -1.1428868
-0.64577091 2.8626504 -1.1428868
-0.6350081 2.8630009 -1.1419734
-0.62522364 2.8626504 -1.1428868
-0.61641765 2.8626504 -1.1428868
-0.60565478 2.8630009 -1.1419734
-0.58706445 2.8626504 -1.1428868
-0.57238787 2.8626504 -1.1428868
-0.56358194 2.8615985 -1.1456271
-0.55477595 2.8626504 -1.1428868
-0.54596996 2.8626504 -1.1428868
-0.53520709 2.8622997 -1.1438003
-0.52542269 2.8626504 -1.1428868
-0.46084562 2.8626504 -1.1428868
-0.45497498 2.8626504 -1.1428868
-0.44714746 2.8630009 -1.1419734
-0.40507448 2.8637023 -1.1401464
-0.39235476 2.8630009 -1.1419734
-0.38452724 2.8626504 -1.1428868
-0.37669969 2.8622997 -1.1438003
-0.36397997 2.8637023 -1.1401464
-0.35517401 2.8637023 -1.1401464
-0.34636804 2.8637023 -1.1401464
-0.33462673 2.8615985 -1.1456271
-0.32582077 2.8615985 -1.1456271
-0.31995013 2.8615985 -1.1456271
-0.2612437 2.8615985 -1.1456271
-0.24363175 2.8615985 -1.1456271
-0.23482579 2.8615985 -1.1456271
-0.22601981 2.8615985 -1.1456271
-0.20547256 2.8615985 -1.1456271
-0.1966666 2.8626504 -1.1428868
-0.17318402 2.8615985 -1.1456271
-0.16437805 2.8615985 -1.1456271
-0.15557209 2.8615985 -1.1456271
-0.14578767 2.8622997 -1.1438003
-0.13502483 2.8637023 -1.1401464
-0.12328354 2.8615985 -1.1456271
-0.11447757 2.8615985 -1.1456271
-0.1056716 2.8615985 -1.1456271
-0.085124351 2.8615985 -1.1456271
-0.079253703 2.8615985 -1.1456271
-0.061641771 2.8615985 -1.1456271
-0.04990048 2.8615985 -1.1456271
-0.02348258 2.8615985 -1.1456271
-0.014676612 2.8615985 -1.1456271
-0.0088059669 2.8615985 -1.1456271
0.0068490854 2.8622997 -1.1438003
0.014676612 2.8637023 -1.1401464
0.02348258 2.8637023 -1.1401464
0.035223871 2.8637023 -1.1401464
0.044029836 2.8637023 -1.1401464
0.12621886 2.8637023 -1.1401464
0.13600327 2.8630009 -1.1419734
0.14774457 2.8622997 -1.1438003
0.15557209 2.8626504 -1.1428868
0.16437805 2.8626504 -1.1428868
0.17709778 2.8622997 -1.1438003
0.1849253 2.8626504 -1.1428868
0.19275284 2.8622997 -1.1438003
0.206451 2.8622997 -1.1438003
0.21427853 2.8637023 -1.1401464
0.24363175 2.8637023 -1.1401464
0.25537303 2.8637023 -1.1401464
0.26515746 2.8630009 -1.1419734
0.2759203 2.8615985 -1.1456271
0.28472626 2.8626504 -1.1428868
0.29353225 2.8615985 -1.1456271
0.30527353 2.8615985 -1.1456271
0.31701481 2.8615985 -1.1456271
0.32582077 2.8615985 -1.1456271
0.33462673 2.8615985 -1.1456271
0.34930336 2.8615985 -1.1456271
0.35517401 2.8615985 -1.1456271
0.36397997 2.8615985 -1.1456271
0.37572128 2.8626504 -1.1428868
0.38452724 2.8637023 -1.1401464
0.39431164 2.8630009 -1.1419734
0.40507448 2.8615985 -1.1456271
0.41681579 2.8615985 -1.1456271
0.43736303 2.8626504 -1.1428868
0.44616899 2.8626504 -1.1428868
-0.71368355 2.8912101 -1.1447239
-0.70479953 2.8912101 -1.1447239
-0.69591546 2.8912101 -1.1447239
-0.68703145 2.8912101 -1.1447239
-0.6751861 2.8912101 -1.1447239
-0.66334069 2.8912101 -1.1447239
-0.61299789 2.8912101 -1.1447239
-0.60411388 2.8912101 -1.1447239
-0.5952298 2.8912101 -1.1447239
-0.58338445 2.8912101 -1.1447239
-0.57450044 2.8912101 -1.1447239
-0.56561643 2.8912101 -1.1447239
-0.55673242 2.8912101 -1.1447239
-0.54488701 2.8912101 -1.1447239
-0.53304166 2.8912101 -1.1447239
-0.52415764 2.8912101 -1.1447239
-0.51527357 2.8912101 -1.1447239
-0.50342822 2.8912101 -1.1447239
-0.49454418 2.8912101 -1.1447239
-0.48566017 2.8912101 -1.1447239
-0.47381479 2.8912101 -1.1447239
-0.39385855 2.8912101 -1.1447239
-0.38497451 2.8912101 -1.1447239
-0.37312916 2.8912101 -1.1447239
-0.36424512 2.8912101 -1.1447239
-0.3553611 2.8912101 -1.1447239
-0.34647706 2.8912101 -1.1447239
-0.26355949 2.8912101 -1.1447239
-0.24579142 2.8912101 -1.1447239
-0.23986875 2.8912101 -1.1447239
-0.22802337 2.8912101 -1.1447239
-0.19840994 2.8912101 -1.1447239
-0.1747192 2.8912101 -1.1447239
-0.16583517 2.8912101 -1.1447239
-0.15695114 2.8912101 -1.1447239
-0.14510578 2.8912101 -1.1447239
-0.13622175 2.8912101 -1.1447239
-0.10660833 2.8912101 -1.1447239
-0.097724304 2.8912101 -1.1447239
-0.085878931 2.8912101 -1.1447239
-0.079956248 2.8912101 -1.1447239
-0.020729396 2.8912101 -1.1447239
-0.014806712 2.8912101 -1.1447239
-0.0059226849 2.8912101 -1.1447239
0.0029613425 2.8912101 -1.1447239
0.13622175 2.8912101 -1.1447239
0.14510578 2.8912101 -1.1447239
0.15398981 2.8912101 -1.1447239
0.16583517 2.8912101 -1.1447239
0.1747192 2.8912101 -1.1447239
0.18360323 2.8912101 -1.1447239
0.19544861 2.8912101 -1.1447239
0.20433263 2.8912101 -1.1447239
0.21025531 2.8912101 -1.1447239
0.26948217 2.8912101 -1.1447239
0.27540484 2.8912101 -1.1447239
0.28428888 2.8912101 -1.1447239
0.29613423 2.8912101 -1.1447239
0.30501828 2.8912101 -1.1447239
0.31390232 2.8912101 -1.1447239
0.32574767 2.8912101 -1.1447239
0.33463171 2.8912101 -1.1447239
0.3553611 2.8912101 -1.1447239
0.36424512 2.8912101 -1.1447239
0.37312916 2.8912101 -1.1447239
0.38201317 2.8912101 -1.1447239
0.39681989 2.8912101 -1.1447239
0.4057039 2.8912101 -1.1447239
0.41458794 2.8912101 -1.1447239
0.42643332 2.8912101 -1.1447239
0.43531734 2.8912101 -1.1447239
0.44420135 2.8912101 -1.1447239
-0.58561409 2.919209 -1.1493829
-0.57067496 2.919209 -1.1493829
-0.50494277 2.919209 -1.1493829
-0.47506452 2.919209 -1.1493829
-0.39439318 2.919209 -1.1493829
-0.38542971 2.919209 -1.1493829
-0.37646621 2.919209 -1.1493829
-0.36451492 2.919209 -1.1493829
-0.35555142 2.919209 -1.1493829
-0.34658796 2.919209 -1.1493829
-0.33463663 2.919209 -1.1493829
-0.32567316 2.919209 -1.1493829
-0.31670967 2.919209 -1.1493829
-0.30475837 2.919209 -1.1493829
-0.29579487 2.919209 -1.1493829
-0.28683141 2.919209 -1.1493829
-0.27488011 2.919209 -1.1493829
-0.26591662 2.919209 -1.1493829
-0.25695312 2.919209 -1.1493829
-0.24500182 2.919209 -1.1493829
-0.23305053 2.919209 -1.1493829
-0.22408703 2.919209 -1.1493829
-0.21512356 2.919209 -1.1493829
-0.20317224 2.919209 -1.1493829
-0.19420876 2.919209 -1.1493829
-0.18524528 2.919209 -1.1493829
-0.17329398 2.919209 -1.1493829
-0.1643305 2.919209 -1.1493829
-0.15536702 2.919209 -1.1493829
-0.1434157 2.919209 -1.1493829
-0.13445222 2.919209 -1.1493829
-0.12548873 2.919209 -1.1493829
-0.11353743 2.919209 -1.1493829
-0.10457395 2.919209 -1.1493829
-0.09561047 2.919209 -1.1493829
-0.083659157 2.919209 -1.1493829
-0.074695677 2.919209 -1.1493829
-0.065732196 2.919209 -1.1493829
-0.053780891 2.919209 -1.1493829
-0.044817407 2.919209 -1.1493829
-0.035853926 2.919209 -1.1493829
-0.023902617 2.919209 -1.1493829
-0.014939136 2.919209 -1.1493829
-0.0059756543 2.919209 -1.1493829
0.0029878272 2.919209 -1.1493829
0.27786791 2.919209 -1.1493829
0.33762446 2.919209 -1.1493829
0.34658796 2.919209 -1.1493829
0.35555142 2.919209 -1.1493829
0.36451492 2.919209 -1.1493829
0.40933231 2.919209 -1.1493829
0.43622276 2.919209 -1.1493829
-0.61250454 2.9213505 -1.1438042
-0.59457761 2.9213505 -1.1438042
-0.58262628 2.9213505 -1.1438042
-0.57366276 2.9213505 -1.1438042
-0.56469935 2.9213505 -1.1438042
-0.55872369 2.9213505 -1.1438042
-0.5437845 2.9213505 -1.1438042
-0.49299148 2.9213505 -1.1438042
-0.48402798 2.9213505 -1.1438042
-0.47506452 2.9213505 -1.1438042
-0.41530797 2.9213505 -1.1438042
-0.40634447 2.9213505 -1.1438042
-0.39439318 2.9213505 -1.1438042
-0.38542971 2.9213505 -1.1438042
-0.37646621 2.9213505 -1.1438042
-0.36451492 2.9213505 -1.1438042
-0.35555142 2.9213505 -1.1438042
-0.34957579 2.9213505 -1.1438042
-0.32567316 2.9213505 -1.1438042
-0.3196975 2.9213505 -1.1438042
-0.30475837 2.9213505 -1.1438042
-0.29579487 2.9213505 -1.1438042
-0.28683141 2.9213505 -1.1438042
-0.27488011 2.9213505 -1.1438042
-0.26591662 2.9213505 -1.1438042
-0.25695312 2.9213505 -1.1438042
-0.24500182 2.9213505 -1.1438042
-0.23305053 2.9213505 -1.1438042
-0.17329398 2.9213505 -1.1438042
-0.1643305 2.9213505 -1.1438042
-0.15536702 2.9213505 -1.1438042
-0.1434157 2.9213505 -1.1438042
-0.13445222 2.9213505 -1.1438042
-0.12548873 2.9213505 -1.1438042
-0.11353743 2.9213505 -1.1438042
-0.10457395 2.9213505 -1.1438042
-0.09561047 2.9213505 -1.1438042
-0.083659157 2.9213505 -1.1438042
-0.074695677 2.9213505 -1.1438042
-0.020914789 2.9213505 -1.1438042
-0.014939136 2.9213505 -1.1438042
-0.0059756543 2.9213505 -1.1438042
0.0029878272 2.9213505 -1.1438042
0.1434157 2.9213505 -1.1438042
0.15237918 2.9213505 -1.1438042
0.17628179 2.9213505 -1.1438042
0.19420876 2.9213505 -1.1438042
0.20616007 2.9213505 -1.1438042
0.27488011 2.9213505 -1.1438042
0.28384358 2.9213505 -1.1438042
0.30475837 2.9213505 -1.1438042
0.31372184 2.9213505 -1.1438042
0.32567316 2.9213505 -1.1438042
0.33463663 2.9213505 -1.1438042
0.34658796 2.9213505 -1.1438042
0.35555142 2.9213505 -1.1438042
0.36451492 2.9213505 -1.1438042
0.37646621 2.9213505 -1.1438042
0.40933231 2.9213505 -1.1438042
0.41530797 2.9213505 -1.1438042
0.42427146 2.9213505 -1.1438042
0.43622276 2.9213505 -1.1438042
0.44518623 2.9213505 -1.1438042
-0.61200213 2.949873 -1.1484966
-0.60597259 2.949873 -1.1484966
-0.59692824 2.949873 -1.1484966
-0.58486903 2.949873 -1.1484966
-0.57582468 2.949873 -1.1484966
-0.53361762 2.949873 -1.1484966
-0.52457327 2.949873 -1.1484966
-0.51552892 2.949873 -1.1484966
-0.50648451 2.949873 -1.1484966
-0.49442536 2.949873 -1.1484966
-0.47935143 2.949873 -1.1484966
-0.38287818 2.949873 -1.1484966
-0.37383384 2.949873 -1.1484966
-0.36478946 2.949873 -1.1484966
-0.35574508 2.949873 -1.1484966
-0.34368593 2.949873 -1.1484966
-0.33464158 2.949873 -1.1484966
-0.3255972 2.949873 -1.1484966
-0.31655282 2.949873 -1.1484966
-0.30449367 2.949873 -1.1484966
-0.29544932 2.949873 -1.1484966
-0.28339016 2.949873 -1.1484966
-0.27434579 2.949873 -1.1484966
-0.26228663 2.949873 -1.1484966
-0.23213874 2.949873 -1.1484966
-0.22309437 2.949873 -1.1484966
-0.21405001 2.949873 -1.1484966
-0.20500565 2.949873 -1.1484966
-0.19596128 2.949873 -1.1484966
-0.18691692 2.949873 -1.1484966
-0.17485775 2.949873 -1.1484966
-0.14470987 2.949873 -1.1484966
-0.13566551 2.949873 -1.1484966
-0.12662113 2.949873 -1.1484966
-0.11456198 2.949873 -1.1484966
-0.10551761 2.949873 -1.1484966
-0.096473247 2.949873 -1.1484966
-0.084414087 2.949873 -1.1484966
-0.075369723 2.949873 -1.1484966
-0.066325352 2.949873 -1.1484966
-0.054266199 2.949873 -1.1484966
-0.045221832 2.949873 -1.1484966
-0.036177464 2.949873 -1.1484966
-0.024118312 2.949873 -1.1484966
-0.015073944 2.949873 -1.1484966
-0.0060295779 2.949873 -1.1484966
0.003014789 2.949873 -1.1484966
0.14772466 2.949873 -1.1484966
0.34368593 2.949873 -1.1484966
0.35574508 2.949873 -1.1484966
0.36478946 2.949873 -1.1484966
0.37081903 2.949873 -1.1484966
-0.61501694 2.9520338 -1.1428674
-0.60597259 2.9520338 -1.1428674
-0.59692824 2.9520338 -1.1428674
-0.58486903 2.9520338 -1.1428674
-0.57582468 2.9520338 -1.1428674
-0.56678033 2.9520338 -1.1428674
-0.55170637 2.9520338 -1.1428674
-0.54567677 2.9520338 -1.1428674
-0.53663242 2.9520338 -1.1428674
-0.52457327 2.9520338 -1.1428674
-0.51552892 2.9520338 -1.1428674
-0.50648451 2.9520338 -1.1428674
-0.49442536 2.9520338 -1.1428674
-0.48538101 2.9520338 -1.1428674
-0.47935143 2.9520338 -1.1428674
-0.41905564 2.9520338 -1.1428674
-0.40398169 2.9520338 -1.1428674
-0.39493734 2.9520338 -1.1428674
-0.38589299 2.9520338 -1.1428674
-0.37383384 2.9520338 -1.1428674
-0.36478946 2.9520338 -1.1428674
-0.35574508 2.9520338 -1.1428674
-0.34368593 2.9520338 -1.1428674
-0.33464158 2.9520338 -1.1428674
-0.3255972 2.9520338 -1.1428674
-0.31353801 2.9520338 -1.1428674
-0.30449367 2.9520338 -1.1428674
-0.29544932 2.9520338 -1.1428674
-0.28339016 2.9520338 -1.1428674
-0.27434579 2.9520338 -1.1428674
-0.26530141 2.9520338 -1.1428674
-0.25324225 2.9520338 -1.1428674
-0.24419791 2.9520338 -1.1428674
-0.23515353 2.9520338 -1.1428674
-0.22610916 2.9520338 -1.1428674
-0.20199086 2.9520338 -1.1428674
-0.19596128 2.9520338 -1.1428674
-0.18691692 2.9520338 -1.1428674
-0.17485775 2.9520338 -1.1428674
-0.16581339 2.9520338 -1.1428674
-0.15676902 2.9520338 -1.1428674
-0.14470987 2.9520338 -1.1428674
-0.13566551 2.9520338 -1.1428674
-0.12662113 2.9520338 -1.1428674
-0.11456198 2.9520338 -1.1428674
-0.10551761 2.9520338 -1.1428674
-0.096473247 2.9520338 -1.1428674
-0.084414087 2.9520338 -1.1428674
-0.075369723 2.9520338 -1.1428674
-0.069340147 2.9520338 -1.1428674
-0.021103522 2.9520338 -1.1428674
-0.015073944 2.9520338 -1.1428674
-0.0060295779 2.9520338 -1.1428674
0.003014789 2.9520338 -1.1428674
0.12662113 2.9520338 -1.1428674
0.13566551 2.9520338 -1.1428674
0.14470987 2.9520338 -1.1428674
0.15676902 2.9520338 -1.1428674
0.33464158 2.9520338 -1.1428674
0.34368593 2.9520338 -1.1428674
0.35875988 2.9520338 -1.1428674
0.36478946 2.9520338 -1.1428674
0.37383384 2.9520338 -1.1428674
0.44618875 2.9520338 -1.1428674
-0.61453271 2.9821854 -1.1447538
-0.60540599 2.9821854 -1.1447538
-0.59729332 2.9825487 -1.1438071
-0.58411026 2.9821854 -1.1447538
-0.57498354 2.9832757 -1.1419137
-0.5688991 2.9832757 -1.1419137
-0.55368787 2.9832757 -1.1419137
-0.54456115 2.9832757 -1.1419137
-0.53442031 2.9825487 -1.1438071
-0.52326542 2.9821854 -1.1447538
-0.51413876 2.9821854 -1.1447538
-0.50602609 2.9825487 -1.1438071
-0.49588528 2.9832757 -1.1419137
-0.48675859 2.9832757 -1.1419137
-0.34985772 2.9832757 -1.1419137
-0.31639308 2.9832757 -1.1419137
-0.3042241 2.9832757 -1.1419137
-0.29509738 2.9832757 -1.1419137
-0.28597066 2.9821854 -1.1447538
-0.27684394 2.9832757 -1.1419137
-0.23425256 2.9832757 -1.1419137
-0.22512583 2.9821854 -1.1447538
-0.21599911 2.9821854 -1.1447538
-0.20788647 2.981822 -1.1457006
-0.19470343 2.9810951 -1.147594
-0.18557671 2.9832757 -1.1419137
-0.17644998 2.9832757 -1.1419137
-0.16428101 2.9832757 -1.1419137
-0.15515429 2.9832757 -1.1419137
-0.14602757 2.9832757 -1.1419137
-0.13385861 2.9832757 -1.1419137
-0.12473188 2.9832757 -1.1419137
-0.11560516 2.9832757 -1.1419137
-0.1034362 2.9832757 -1.1419137
-0.094309472 2.9832757 -1.1419137
-0.085182756 2.9821854 -1.1447538
-0.076056026 2.9821854 -1.1447538
-0.067943387 2.981822 -1.1457006
-0.05780258 2.9810951 -1.147594
-0.036506891 2.9810951 -1.147594
-0.024337929 2.9810951 -1.147594
-0.015211205 2.9821854 -1.1447538
-0.0060844822 2.9821854 -1.1447538
0.0030422411 2.9832757 -1.1419137
0.1186474 2.9832757 -1.1419137
0.12473188 2.9832757 -1.1419137
0.13487269 2.9825487 -1.1438071
0.14602757 2.9821854 -1.1447538
0.15515429 2.9821854 -1.1447538
0.16326694 2.9825487 -1.1438071
0.3255198 2.9832757 -1.1419137
0.33464652 2.9832757 -1.1419137
0.3468155 2.9821854 -1.1447538
0.35594219 2.9810951 -1.147594
0.36506891 2.9821854 -1.1447538
0.37419567 2.9821854 -1.1447538
0.38230827 2.9825487 -1.1438071
0.39853358 2.9832757 -1.1419137
0.40461805 2.9832757 -1.1419137
0.41678703 2.9832757 -1.1419137
0.4228715 2.9832757 -1.1419137
0.43504047 2.9832757 -1.1419137
0.4441672 2.9832757 -1.1419137
-0.53421426 3.0139906 -1.1438081
