# .PCD v0.7 - Point Cloud Data file format
VERSION 0.7
FIELDS x y z
SIZE 4 4 4
TYPE F F F
COUNT 1 1 1
WIDTH 1392
HEIGHT 1
VIEWPOINT 0 0 0 1 0 0 0
POINTS 1392
DATA ascii
-0.64036447 2.9574142 0.046222746
-0.66385674 2.9798007 0.044128001
-0.6533193 2.9798007 0.044128001
-0.66385674 2.9816887 0.049046695
-0.6533193 2.9816887 0.049046695
-0.64014757 2.9816887 0.049046695
-0.63487887 2.9816887 0.049046695
-0.63461643 3.0053973 0.049436748
-0.62665057 3.0053973 0.049436748
-0.62364328 3.0294852 0.049833059
-0.64210695 2.9614727 0.05679661
-0.63513702 2.9620974 0.05842334
-0.66385674 2.9845209 0.056424856
-0.65419739 2.9842062 0.055605073
-0.64014757 2.983577 0.053965509
-0.63487887 2.9845209 0.056424856
-0.63461643 3.0082521 0.05687356
-0.62665057 3.0082521 0.05687356
-0.62364328 3.0323627 0.057329476
-0.61829013 3.0323627 0.057329476
-0.62328553 3.0539618 0.050235629
-0.62292182 3.078836 0.050644755
-0.61476123 3.078836 0.050644755
-0.62292182 3.0807858 0.055723906
-0.61476123 3.0807858 0.055723906
-0.6115818 3.1051009 0.053620934
-0.6060968 3.1060836 0.056181312
-0.6111148 3.1298177 0.051483393
-0.60558438 3.1298177 0.051483393
-0.61063993 3.1579447 0.05711937
-0.60506326 3.1569455 0.054516256
-0.60453326 3.1835213 0.054975212
-0.60399407 3.2095311 0.052794695
-0.60399407 3.2115636 0.058089375
-0.59832275 3.2115636 0.058089375
-0.59772569 3.2380357 0.055916667
-0.59423345 3.2659976 0.056399524
-0.5906803 3.2944462 0.056890786
-0.58486074 3.2944462 0.056890786
-0.66388804 2.9658442 0.068183959
-0.64297819 2.9649074 0.065743804
-0.63513702 2.9649074 0.065743804
-0.62990952 2.9658442 0.068183959
-0.66297859 2.9879827 0.065442704
-0.65595365 2.9882975 0.066262484
-0.63487887 2.9873533 0.063803136
-0.62961012 2.9892414 0.068721831
-0.63461643 3.011107 0.064310372
-0.62665057 3.0120583 0.066789269
-0.62364328 3.0361996 0.067324698
-0.61829013 3.0361996 0.067324698
-0.61519092 3.0597634 0.065349579
-0.62292182 3.0827355 0.060802817
-0.61385447 3.0833855 0.062495828
-0.6115818 3.1080494 0.061302066
-0.6060968 3.1080494 0.061302066
-0.6115818 3.1100149 0.06642282
-0.6060968 3.1100149 0.06642282
-0.60558438 3.1347728 0.064391196
-0.61015683 3.187552 0.065475345
-0.60682976 3.214612 0.066031277
-0.59832275 3.214612 0.066031277
-0.59772569 3.242135 0.066596568
-0.59423345 3.269099 0.064478636
-0.59423345 3.2711666 0.06986475
-0.5906803 3.2975745 0.065040231
-0.58486074 3.2975745 0.065040231
-0.58412915 3.3254976 0.062871337
-0.57825851 3.3244455 0.060130954
-0.58338445 3.3560376 0.066193342
-0.57746178 3.3549764 0.0634287
-0.57465869 3.3846245 0.063066162
-0.57582468 3.4166074 0.067388058
-0.56678033 3.4155271 0.064573526
-0.55472112 3.4155269 0.064573526
-0.66650176 2.9695909 0.077944458
-0.64036447 2.9677174 0.073064148
-0.63513702 2.9677174 0.073064148
-0.67175978 2.9911294 0.073640645
-0.66385674 2.9920735 0.076099992
-0.6533193 2.9920735 0.076099992
-0.64278191 2.9930177 0.078559339
-0.63487887 2.9920735 0.076099992
-0.62961012 2.9920735 0.076099992
-0.62665057 3.0158646 0.076705039
-0.61691445 3.0161819 0.07753136
-0.61829013 3.0390773 0.074821115
-0.61293691 3.0409956 0.079818606
-0.61519092 3.062664 0.072906554
-0.61204106 3.0876095 0.073500395
-0.6115818 3.1129637 0.074103892
-0.6060968 3.1129637 0.074103892
-0.60558438 3.1387367 0.074717402
-0.60506326 3.1659386 0.077944279
-0.61015683 3.1905746 0.07335031
-0.60453326 3.19259 0.078600407
-0.59890974 3.1915822 0.075975358
-0.60966539 3.2176607 0.073973179
-0.59832275 3.218677 0.07662046
-0.59772569 3.2462349 0.077276468
-0.59423345 3.2732339 0.075250745
-0.5906803 3.29966 0.070473313
-0.58486074 3.29966 0.070473313
-0.5906803 3.3017454 0.075906157
-0.58486074 3.3017454 0.075906157
-0.58412915 3.3286533 0.071092367
-0.58412915 3.3307571 0.076573133
-0.58338445 3.35816 0.071722627
-0.58338445 3.3602827 0.077251911
-0.57746178 3.3602827 0.077251911
-0.58262628 3.3881938 0.072364092
-0.57665062 3.3881938 0.072364092
-0.57366276 3.3903351 0.077942848
-0.57582468 3.4187682 0.07301712
-0.56678033 3.4187682 0.07301712
-0.55170637 3.4187682 0.07301712
-0.56678033 3.420929 0.078646183
-0.55170637 3.420929 0.078646183
-0.56281459 3.449899 0.073681951
-0.56281459 3.4520795 0.079362273
-0.54263878 3.683578 0.075664282
-0.53614014 3.683578 0.075664282
-0.52747524 3.6839664 0.076675452
-0.51014549 3.683578 0.075664282
-0.50364679 3.6847427 0.078697801
-0.52499837 3.7185717 0.073343873
-0.50859219 3.7185717 0.073343873
-0.52171713 3.7209234 0.079470396
-0.50202972 3.7209234 0.079470396
-0.66388804 2.9733377 0.087704957
-0.65081936 2.9733377 0.087704957
-0.64036447 2.9733377 0.087704957
-0.63513702 2.9733377 0.087704957
-0.62990952 2.9733377 0.087704957
-0.66297859 2.9955351 0.08511772
-0.6524412 2.9955351 0.08511772
-0.64278191 2.9949057 0.083478153
-0.63487887 2.9949057 0.083478153
-0.62785387 2.9961646 0.08675728
-0.61907274 2.996794 0.088396847
-0.62665057 3.0187194 0.084141791
-0.61602938 3.0187194 0.084141791
-0.61602938 3.0206227 0.089099824
-0.61293691 3.0429139 0.084816337
-0.61249274 3.0665321 0.082982481
-0.61204106 3.0915089 0.083658397
-0.6115818 3.1168947 0.084345341
-0.6060968 3.1178777 0.086905718
-0.6111148 3.1417093 0.082462192
-0.60558438 3.1436913 0.087625265
-0.61063993 3.167937 0.083150506
-0.60506326 3.1689363 0.08575362
-0.60453326 3.1956129 0.086475492
-0.59609795 3.1956131 0.086475492
-0.59265149 3.2227416 0.087209702
-0.59200579 3.2493095 0.085286379
-0.59327191 3.2759907 0.082432188
-0.58557957 3.277369 0.086022854
-0.5906803 3.3038311 0.08133924
-0.58486074 3.3048739 0.084055722
-0.58412915 3.3339128 0.084794283
-0.58338445 3.3634663 0.085545838
-0.57746178 3.3634663 0.085545838
-0.57465869 3.3939044 0.087240778
-0.57582468 3.42309 0.084275365
-0.56678033 3.4241705 0.087089896
-0.55472112 3.4241705 0.087089896
-0.51014549 3.6870716 0.084764719
-0.50364679 3.6870716 0.084764719
-0.49714813 3.6870716 0.084764719
-0.54468578 3.7232752 0.085597038
-0.53484207 3.7232752 0.085597038
-0.52499837 3.7232752 0.085597038
-0.5003804 3.7578211 0.080258489
-0.50539184 3.7978554 0.087311625
-0.50374293 3.8350644 0.085038662
-0.49698126 3.8362761 0.088194966
-0.50206017 3.873033 0.082719207
-0.49522939 3.8754811 0.089096189
-0.50034255 3.9130213 0.083573222
-0.49858895 3.9538426 0.084445119
-0.49679828 3.9955239 0.085335255
-0.48622811 3.9955239 0.085335255
-0.48072559 4.0380921 0.086244345
-0.47360373 4.0380921 0.086244345
-0.47150517 4.0815763 0.087173223
-0.46430662 4.0815763 0.087173223
-0.45245516 4.1714129 0.089091897
-0.66388804 2.9761477 0.095025361
-0.65081936 2.9770842 0.097465456
-0.64559191 2.9770842 0.097465456
-0.66122234 2.998682 0.093315542
-0.6533193 2.998682 0.093315542
-0.64278191 2.998682 0.093315542
-0.63487887 2.998682 0.093315542
-0.62697577 2.998682 0.093315542
-0.61907274 2.998682 0.093315542
-0.66122234 3.0005703 0.098234355
-0.64278191 3.0005703 0.098234355
-0.63487887 3.0005703 0.098234355
-0.62697577 3.0005703 0.098234355
-0.61907274 3.0005703 0.098234355
-0.61602938 3.0234773 0.096536577
-0.61788911 3.0694327 0.090539575
-0.61788911 3.0713668 0.095577478
-0.61748141 3.095408 0.0938164
-0.61432433 3.1198432 0.092026472
-0.6060968 3.1198432 0.092026472
-0.61432433 3.121809 0.097147226
-0.6060968 3.121809 0.097147226
-0.60558438 3.1476552 0.097951412
-0.61063993 3.1719341 0.093562961
-0.60506326 3.1729333 0.096166074
-0.59391004 3.1739326 0.098769188
-0.60453326 3.1986361 0.094350576
-0.59609795 3.1986361 0.094350576
-0.60453326 3.2006512 0.099600673
-0.59328616 3.2006512 0.099600673
-0.59265149 3.2257905 0.095151663
-0.59200579 3.2523842 0.093296289
-0.58628595 3.2513595 0.090626359
-0.58557957 3.2794366 0.091409087
-0.59134883 3.2815042 0.096795082
-0.5906803 3.3100877 0.09763813
-0.5870645 3.3381205 0.095755696
-0.57825851 3.3391726 0.098496079
-0.58338445 3.3666501 0.093839765
-0.57746178 3.3666501 0.093839765
-0.57366276 3.3967597 0.094679236
-0.56469935 3.3967597 0.094679236
-0.55872369 3.3967597 0.094679236
-0.54677236 3.3967597 0.094679236
-0.55773592 3.4274116 0.09553349
-0.52314281 3.6894004 0.090831757
-0.51014549 3.6894004 0.090831757
-0.50364679 3.6894004 0.090831757
-0.5263921 3.6917293 0.096898794
-0.51339483 3.6917293 0.096898794
-0.50364679 3.6917293 0.096898794
-0.54468578 3.7268028 0.094786942
-0.53484207 3.7256269 0.09172368
-0.52171713 3.7256269 0.09172368
-0.50479877 3.7641544 0.096758127
-0.50539184 3.8002543 0.093560934
-0.49869788 3.8026533 0.099810243
-0.50374293 3.8386993 0.094507456
-0.49698126 3.8386993 0.094507456
-0.49522939 3.877929 0.095473289
-0.49510232 3.9575915 0.094210207
-0.48464242 3.9588408 0.097465277
-0.47766915 3.9588408 0.097465277
-0.48622811 3.9980493 0.091914058
-0.47565791 4.0005746 0.098492742
-0.48072559 4.0406446 0.092893243
-0.47360373 4.0419207 0.096217632
-0.46648186 4.0406446 0.092893243
-0.46430662 4.084156 0.093893647
-0.46208388 4.1286139 0.094915748
-0.45480698 4.1286139 0.094915748
-0.45245516 4.1740494 0.095960259
-0.44509816 4.1740494 0.095960259
-0.43774116 4.1740494 0.095960259
-0.43517312 4.2204947 0.097028017
-0.43254721 4.2679849 0.098119736
-0.66388804 2.9789577 0.10234576
-0.65081936 2.9789577 0.10234576
-0.64559191 2.9789577 0.10234576
-0.66388804 2.9808309 0.10722595
-0.65343308 2.9808309 0.10722595
-0.64559191 2.9808309 0.10722595
-0.66122234 3.0024583 0.10315305
-0.64278191 3.0034025 0.10561246
-0.63487887 3.0034022 0.10561246
-0.62961012 3.0034022 0.10561246
-0.61907274 3.0034022 0.10561246
-0.62930584 3.0272837 0.10645229
-0.61602932 3.0272837 0.10645229
-0.61293691 3.052506 0.10980439
-0.60758376 3.052506 0.10980439
-0.61788911 3.0733006 0.10061538
-0.61748141 3.0983326 0.10143495
-0.62292182 3.1002822 0.10651398
-0.61748141 3.1002822 0.10651398
-0.61432433 3.1247573 0.10482818
-0.6060968 3.1247573 0.10482818
-0.61063993 3.1769304 0.10657853
-0.60506326 3.1769304 0.10657853
-0.59669834 3.1769302 0.10657853
-0.59328616 3.2026665 0.10485077
-0.59265149 3.2288389 0.10309362
-0.58698016 3.2298553 0.1057409
-0.59200579 3.2554591 0.1013062
-0.59134883 3.2846055 0.10487419
-0.5906803 3.3132157 0.10578758
-0.58486074 3.3132157 0.10578758
-0.58412915 3.3423283 0.10671711
-0.57825851 3.3423283 0.10671711
-0.57450044 3.3708951 0.10489845
-0.58262628 3.3989012 0.10025787
-0.57366276 3.3989012 0.10025787
-0.56469935 3.3989012 0.10025787
-0.55872369 3.3989012 0.10025787
-0.57067496 3.4010427 0.10583663
-0.56469935 3.4010427 0.10583663
-0.55573583 3.4010427 0.10583663
-0.55472112 3.4295723 0.10116255
-0.55170637 3.4317331 0.10679173
-0.50523263 3.6584835 0.10197413
-0.50523263 3.66079 0.10798275
-0.49879655 3.66079 0.10798275
-0.52314281 3.6940582 0.10296583
-0.51664412 3.6940582 0.10296583
-0.50364679 3.6940582 0.10296583
-0.54140455 3.7303307 0.10397685
-0.53484207 3.7303307 0.10397685
-0.50369418 3.7673213 0.10500789
-0.49869788 3.805052 0.10605955
-0.49472737 3.8427382 0.10502838
-0.49522939 3.8803768 0.10185027
-0.49344125 3.9216776 0.10612333
-0.49161568 3.9613397 0.10397542
-0.48464242 3.9613397 0.10397542
-0.47766915 3.9613397 0.10397542
-0.47565791 4.0030999 0.10507143
-0.47360373 4.0457492 0.10619092
-0.46648186 4.0457492 0.10619092
-0.47150517 4.0867357 0.10061407
-0.46430662 4.0880256 0.10397428
-0.46208388 4.1325254 0.10510612
-0.45613366 4.1780043 0.1062628
-0.44509816 4.1780043 0.1062628
-0.43774116 4.1766863 0.10282862
-0.43517312 4.2231607 0.10397279
-0.43254721 4.2706804 0.10514271
-0.41750211 4.2706804 0.10514271
-0.40997955 4.2706804 0.10514271
-0.39633071 4.3689985 0.10756326
-0.40094578 4.4170833 0.10154748
-0.39316043 4.418478 0.10518163
-0.38537505 4.418478 0.10518163
-0.3775897 4.418478 0.10518163
-0.36720923 4.4180131 0.10397025
-0.32309222 4.4198732 0.10881579
-0.31530687 4.4198732 0.10881579
-0.30752152 4.4198732 0.10881579
-0.66651219 2.9595389 0.11123556
-0.65613848 2.9595389 0.11123556
-0.66651219 2.9613976 0.11607796
-0.65613848 2.9613976 0.11607796
-0.64317131 2.9613976 0.11607796
-0.66650176 2.9836411 0.11454636
-0.65430433 2.9833288 0.11373299
-0.64210695 2.9833288 0.11373299
-0.63513702 2.9845777 0.11698645
-0.62990952 2.9836411 0.11454636
-0.64014757 3.0062346 0.11299056
-0.62961012 3.0071788 0.11545002
-0.62665057 3.0310898 0.116368
-0.61602938 3.03109 0.116368
-0.61293691 3.0553837 0.11730069
-0.61249274 3.0791023 0.11572945
-0.60709631 3.0781355 0.11321044
-0.60388052 3.1032066 0.11413252
-0.60061175 3.1296716 0.11763
-0.60558438 3.1536012 0.11344075
-0.60506326 3.1799281 0.11438787
-0.59948665 3.1799281 0.11438787
-0.60506326 3.1819265 0.1195941
-0.59948665 3.1819265 0.1195941
-0.59516066 3.2060254 0.11360073
-0.59265149 3.232904 0.11368287
-0.58698016 3.2339201 0.11633015
-0.59200579 3.2595587 0.11198616
-0.58628595 3.2616084 0.11732602
-0.59134883 3.2877066 0.11295331
-0.58557957 3.2887404 0.1156463
-0.58486074 3.3173871 0.11665356
-0.57904124 3.3173871 0.11665356
-0.57532322 3.345484 0.11493826
-0.57351333 3.3737249 0.11227083
-0.57067496 3.4042549 0.11420476
-0.56469935 3.4042549 0.11420476
-0.55573583 3.4042549 0.11420476
-0.54677236 3.4031842 0.11141539
-0.55170637 3.4360547 0.11804986
-0.51014549 3.6987162 0.11509991
-0.50364679 3.6987162 0.11509991
-0.54140455 3.7326825 0.11010337
-0.53484207 3.7338583 0.11316669
-0.52499837 3.7338583 0.11316669
-0.50202972 3.7338583 0.11316669
-0.5003804 3.7696965 0.11119533
-0.5003804 3.7720716 0.11738265
-0.4953509 3.8086505 0.11543351
-0.49021962 3.8471804 0.11660135
-0.49344125 3.9253874 0.11578774
-0.49161568 3.9650881 0.1137405
-0.48464242 3.9650881 0.1137405
-0.47766915 3.9650881 0.1137405
-0.47565791 4.0068879 0.11493963
-0.46861115 4.0068879 0.11493963
-0.46648186 4.0483012 0.1128397
-0.46648186 4.0508537 0.1194886
-0.46430662 4.0918951 0.11405492
-0.46208388 4.1364374 0.11529648
-0.45613366 4.1819592 0.11656535
-0.45005083 4.2284923 0.11786234
-0.44261199 4.2271595 0.11438996
-0.43517312 4.2258267 0.11091757
-0.44006976 4.2760725 0.11918843
-0.43254721 4.2747245 0.11567706
-0.42986143 4.3220072 0.11344206
-0.42711368 4.3717566 0.11474788
-0.41557008 4.3717566 0.11474788
-0.39633071 4.3717566 0.11474788
-0.40873113 4.4226632 0.11608398
-0.39316043 4.4226632 0.11608398
-0.38537505 4.4226632 0.11608398
-0.3775897 4.4226632 0.11608398
-0.29973617 4.4226632 0.11608398
-0.23745333 4.4226632 0.11608398
-0.22577529 4.4226632 0.11608398
-0.37416118 4.4747686 0.11745167
-0.3662841 4.4733572 0.11377472
-0.35446846 4.4733572 0.11377472
-0.34265286 4.4733572 0.11377472
-0.33477578 4.4733572 0.11377472
-0.32689872 4.4747686 0.11745167
-0.31508309 4.4747686 0.11745167
-0.2953904 4.4747686 0.11745167
-0.28751332 4.4733572 0.11377472
-0.27569771 4.4747686 0.11745167
-0.2638821 4.4747686 0.11745167
-0.25600502 4.4747686 0.11745167
-0.24812794 4.4747686 0.11745167
-0.64317131 2.9641857 0.12334144
-0.64036447 2.9873877 0.12430692
-0.63513702 2.9873877 0.12430692
-0.62816703 2.9870756 0.12349353
-0.62609768 3.0112696 0.12610739
-0.62399524 3.0348964 0.12628371
-0.61602938 3.0348961 0.12628371
-0.61293691 3.0582612 0.12479722
-0.61249274 3.0820031 0.12328637
-0.61204106 3.1071062 0.12429059
-0.60478729 3.106781 0.12344408
-0.60244012 3.1329477 0.1261646
-0.60005391 3.1575649 0.12376702
-0.59948665 3.1839249 0.12480032
-0.59609795 3.2087126 0.12060082
-0.59890974 3.2107277 0.1258508
-0.59454191 3.2373073 0.1251545
-0.58698016 3.2369685 0.12427205
-0.58628595 3.2646832 0.12533599
-0.58557957 3.2928753 0.12641847
-0.58486074 3.3205152 0.12480307
-0.57904124 3.3205152 0.12480307
-0.57532322 3.34864 0.12315929
-0.56651723 3.34864 0.12315929
-0.56561643 3.3783238 0.12425107
-0.56469935 3.4085379 0.12536228
-0.55872369 3.4085379 0.12536228
-0.55472112 3.4382155 0.12367904
-0.54567677 3.4382155 0.12367904
-0.55472112 3.4403763 0.1293081
-0.51014549 3.7022095 0.12420046
-0.50364679 3.7022095 0.12420046
-0.53484207 3.737386 0.12235665
-0.52499837 3.7385619 0.12541991
-0.50202972 3.737386 0.12235665
-0.50258958 3.7760303 0.12769492
-0.4953509 3.8122487 0.1248076
-0.49021962 3.8508151 0.12607014
-0.48345798 3.8508151 0.12607014
-0.49510232 3.9688368 0.12350571
-0.48464242 3.9688368 0.12350571
-0.47766915 3.9688368 0.12350571
-0.47565791 4.0106759 0.12480772
-0.46508777 4.0106759 0.12480772
-0.45579907 4.0534058 0.12613738
-0.46430662 4.0944748 0.12077534
-0.46208388 4.1390452 0.1220901
-0.45981213 4.1845956 0.12343371
-0.45377028 4.2311583 0.12480712
-0.44261199 4.2311583 0.12480712
-0.44006976 4.2787681 0.1262114
-0.43254721 4.2787681 0.1262114
-0.42502466 4.2787681 0.1262114
-0.42605734 4.326097 0.12409633
-0.42711368 4.3745146 0.12193239
-0.41557008 4.3758936 0.1255247
-0.40402645 4.3772726 0.12911701
-0.40483844 4.4254532 0.12335229
-0.15181442 4.4254532 0.12335229
-0.3977924 4.4775915 0.12480557
-0.38597679 4.4775915 0.12480557
-0.37416118 4.4775915 0.12480557
-0.2638821 4.4775915 0.12480557
-0.25600502 4.4775915 0.12480557
-0.24025086 4.4775915 0.12480557
-0.23237379 4.4775915 0.12480557
-0.22449671 4.4775915 0.12480557
-0.16541862 4.4775915 0.12480557
-0.37065083 4.530972 0.12629342
-0.36267984 4.530972 0.12629342
-0.35470885 4.530972 0.12629342
-0.34673786 4.530972 0.12629342
-0.33478138 4.530972 0.12629342
-0.3228249 4.530972 0.12629342
-0.31485391 4.530972 0.12629342
-0.30688292 4.530972 0.12629342
-0.29492646 4.530972 0.12629342
-0.28296998 4.530972 0.12629342
-0.27499899 4.530972 0.12629342
-0.25108603 4.530972 0.12629342
-0.21521661 4.530972 0.12629342
-0.20326012 4.530972 0.12629342
-0.19528913 4.530972 0.12629342
-0.18731815 4.530972 0.12629342
-0.17934717 4.530972 0.12629342
-0.59948665 3.1869228 0.13260967
-0.58698016 3.2410336 0.13486129
-0.58628595 3.2687829 0.13601595
-0.58486074 3.3236437 0.13295251
-0.57904124 3.3236437 0.13295251
-0.57532322 3.3528476 0.1341207
-0.56651723 3.3528476 0.1341207
-0.56561643 3.3825688 0.13530964
-0.56469935 3.4128208 0.13651979
-0.55872369 3.4117501 0.13373041
-0.55472112 3.4425371 0.13493717
-0.55064565 3.4727941 0.13332564
-0.53847665 3.4738843 0.13616586
-0.54751849 3.5043402 0.13359551
-0.51014549 3.7068672 0.13633448
-0.50364679 3.7080317 0.13936794
-0.52171713 3.7420895 0.13460982
-0.50859219 3.7420895 0.13460982
-0.50369418 3.779197 0.13594472
-0.49535093 3.8158472 0.1341815
-0.49021962 3.8544497 0.13553905
-0.48345798 3.8544497 0.13553905
-0.49161568 3.9725852 0.13327086
-0.48464242 3.9725852 0.13327086
-0.4827047 4.0144639 0.1346758
-0.47565791 4.0144639 0.1346758
-0.46508777 4.0144639 0.1346758
-0.45579904 4.0572338 0.13611066
-0.45613366 4.1885505 0.13373607
-0.41567019 4.187232 0.13030195
-0.40831318 4.187232 0.13030195
-0.45005083 4.235157 0.13522428
-0.44261199 4.2364898 0.13869667
-0.42525467 4.2356014 0.13638175
-0.44383106 4.2814641 0.13323438
-0.41941795 4.3800306 0.13630152
-0.40402645 4.3800306 0.13630152
-0.14402907 4.4282432 0.1306206
-0.13624372 4.4282432 0.1306206
-0.12456568 4.4282432 0.1306206
-0.11288764 4.4282432 0.1306206
-0.10510229 4.4282432 0.1306206
-0.097316936 4.4282432 0.1306206
-0.085638903 4.4282432 0.1306206
-0.40566948 4.4804144 0.13215935
-0.3977924 4.4818258 0.1358363
-0.38728964 4.4813552 0.13461065
-0.16148008 4.4804144 0.13215935
-0.153603 4.4804144 0.13215935
-0.14572594 4.4832373 0.13951325
-0.13784885 4.4832373 0.13951325
-0.12997177 4.4832373 0.13951325
-0.11421762 4.4832373 0.13951325
-0.10634054 4.4832373 0.13951325
-0.090586387 4.4832373 0.13951325
-0.37463629 4.5338287 0.13373494
-0.36267984 4.5338287 0.13373494
-0.35470885 4.5338287 0.13373494
-0.34673786 4.5338287 0.13373494
-0.33478138 4.5338287 0.13373494
-0.27499899 4.5338287 0.13373494
-0.267028 4.5338287 0.13373494
-0.25507152 4.5338287 0.13373494
-0.24311505 4.5338287 0.13373494
-0.23514406 4.5338287 0.13373494
-0.22717308 4.5338287 0.13373494
-0.2192021 4.5338287 0.13373494
-0.18731815 4.5338287 0.13373494
-0.17536168 4.5338287 0.13373494
-0.32671985 4.5885296 0.13534856
-0.31461912 4.5885296 0.13534856
-0.30251837 4.5885296 0.13534856
-0.29445121 4.5885296 0.13534856
-0.28638405 4.5885296 0.13534856
-0.21377964 4.5885296 0.13534856
-0.2057125 4.5885296 0.13534856
-0.19764534 4.5885296 0.13534856
-0.56376553 3.4446979 0.14056635
-0.55267382 3.4767916 0.14373963
-0.54649508 3.5080075 0.14314973
-0.52171713 3.7456172 0.14379966
-0.51515466 3.746793 0.14686298
-0.50531095 3.7456172 0.14379966
-0.50258958 3.7831554 0.146257
-0.49375284 3.7827597 0.14522576
-0.49200395 3.8194454 0.14355552
-0.48531002 3.8194454 0.14355552
-0.49200395 3.8218443 0.14980483
-0.48345798 3.8580847 0.14500773
-0.48653999 3.9377532 0.14800215
-0.49161568 3.9763336 0.14303601
-0.48464242 3.9775832 0.14629108
-0.47766915 3.9775832 0.14629108
-0.47565791 4.0182519 0.14454389
-0.46508777 4.0182519 0.14454389
-0.45579907 4.0610623 0.14608395
-0.45480698 4.1494765 0.14926445
-0.44753006 4.1481724 0.14586765
-0.45981213 4.1925049 0.14403856
-0.44509816 4.1925049 0.14403856
-0.43774116 4.1925049 0.14403856
-0.43517312 4.2391558 0.14564145
-0.42401484 4.2391558 0.14564145
-0.44006976 4.2841597 0.14025724
-0.42225325 4.3342767 0.14540482
0.066175513 4.4338236 0.14515698
0.073960871 4.4338236 0.14515698
0.015754154 4.4860601 0.14686716
0.027569771 4.4860601 0.14686716
0.035446849 4.4860601 0.14686716
0.043323927 4.4860601 0.14686716
0.055139542 4.4860601 0.14686716
-0.40253475 4.5395417 0.1486181
-0.39456376 4.5395417 0.1486181
-0.38659278 4.5381136 0.14489728
-0.37862179 4.536685 0.14117646
-0.267028 4.536685 0.14117646
-0.25507152 4.536685 0.14117646
-0.23514406 4.536685 0.14117646
-0.22717308 4.536685 0.14117646
-0.16340519 4.536685 0.14117646
-0.15543421 4.536685 0.14117646
-0.14746323 4.5395417 0.1486181
-0.13550675 4.5395417 0.1486181
-0.12355027 4.536685 0.14117646
-0.11557928 4.5395417 0.1486181
-0.1076083 4.5395417 0.1486181
-0.096980326 4.5385895 0.14613755
-0.083695345 4.536685 0.14117646
-0.075724363 4.536685 0.14117646
-0.067753375 4.536685 0.14117646
-0.054468405 4.5376372 0.14365701
-0.04384042 4.5381136 0.14489728
-0.035869434 4.5381136 0.14489728
-0.027898448 4.536685 0.14117646
-0.01594197 4.5381131 0.14489728
-0.0039854925 4.536685 0.14117646
0.0039854925 4.5381136 0.14489728
-0.37512279 4.5914207 0.14287984
-0.36705562 4.5914207 0.14287984
-0.3549549 4.5914207 0.14287984
-0.34285414 4.5914207 0.14287984
-0.33478698 4.5914207 0.14287984
-0.32671985 4.5914207 0.14287984
-0.31461912 4.5914207 0.14287984
-0.30251837 4.5914207 0.14287984
-0.29445121 4.5914207 0.14287984
-0.28638405 4.5914207 0.14287984
-0.27831689 4.5914207 0.14287984
-0.24604827 4.5914207 0.14287984
-0.2218468 4.5914207 0.14287984
-0.21377964 4.5914207 0.14287984
-0.2057125 4.5914207 0.14287984
-0.19764534 4.5914207 0.14287984
-0.1855446 4.5914207 0.14287984
-0.17344387 4.5914207 0.14287984
-0.51515466 3.749145 0.15298975
-0.50859219 3.749145 0.15298975
-0.50700796 3.7863221 0.1545068
-0.50539184 3.8242431 0.15605414
-0.4953509 3.8242431 0.15605414
-0.49021962 3.8617191 0.15447664
-0.48345798 3.8617191 0.15447664
-0.47669631 3.8605077 0.15132034
-0.48156792 3.9024081 0.1592437
-0.48464242 3.9813316 0.15605617
-0.47418249 3.9813316 0.15605617
-0.47565791 4.0207772 0.15112269
-0.46626222 4.0216193 0.15331559
-0.46648186 4.0661669 0.15938163
-0.45936 4.0636148 0.15273273
-0.46208388 4.1520844 0.15605795
-0.45480698 4.1520844 0.15605795
-0.44753006 4.1520844 0.15605795
-0.44509816 4.1964598 0.1543411
-0.43528882 4.1960206 0.15319638
-0.43517312 4.2444878 0.15953088
-0.42401487 4.2431545 0.15605855
-0.41750211 4.2895517 0.15430307
0.035446849 4.488883 0.15422106
0.043323927 4.488883 0.15422106
0.055139542 4.488883 0.15422106
0.066955157 4.488883 0.15422106
0.074832238 4.488883 0.15422106
0.082709312 4.488883 0.15422106
0.094524927 4.488883 0.15422106
0.10634054 4.488883 0.15422106
0.11421762 4.488883 0.15422106
0.12603323 4.488883 0.15422106
0.13784885 4.488883 0.15422106
0.14572594 4.488883 0.15422106
0.153603 4.488883 0.15422106
-0.40253475 4.542398 0.15605962
-0.39456376 4.542398 0.15605962
-0.011956478 4.542398 0.15605962
0.0039854925 4.542398 0.15605962
0.01594197 4.542398 0.15605962
0.027898448 4.542398 0.15605962
-0.39125708 4.5972028 0.15794265
-0.38318995 4.5957575 0.15417689
-0.37512279 4.5957575 0.15417689
-0.36705562 4.5957575 0.15417689
-0.3562994 4.5952754 0.15292163
-0.34285414 4.5943117 0.15041113
-0.33478698 4.5943117 0.15041113
-0.32671985 4.5943117 0.15041113
-0.31058553 4.5943117 0.15041113
-0.30251837 4.5943117 0.15041113
-0.29445121 4.5943117 0.15041113
-0.28638405 4.5957575 0.15417689
-0.27428332 4.5957575 0.15417689
-0.26218259 4.5957575 0.15417689
-0.25411543 4.5957575 0.15417689
-0.24604827 4.5943117 0.15041113
-0.23798111 4.5957575 0.15417689
-0.22588038 4.5957575 0.15417689
-0.21377964 4.5957575 0.15417689
-0.19764534 4.5957575 0.15417689
-0.1855446 4.595757 0.15417689
-0.17344387 4.5957575 0.15417689
-0.16537671 4.5957575 0.15417689
-0.15730955 4.5957575 0.15417689
-0.14520882 4.5972028 0.15794265
-0.13310808 4.5972028 0.15794265
-0.12504092 4.5957575 0.15417689
-0.11697377 4.5972028 0.15794265
-0.10487303 4.5972028 0.15794265
-0.092772298 4.5972028 0.15794265
-0.084705144 4.5957575 0.15417689
-0.076637983 4.5957575 0.15417689
-0.06453725 4.5957575 0.15417689
-0.052436516 4.5972028 0.15794265
-0.044369362 4.5972028 0.15794265
-0.036302205 4.5972028 0.15794265
-0.025545994 4.5962391 0.15543215
-0.0040335781 4.5957575 0.15417689
-0.35520688 4.6533456 0.15987134
-0.34704122 4.6533456 0.15987134
-0.3347927 4.6533456 0.15987134
-0.32254419 4.6518822 0.15605968
-0.3143785 4.6533456 0.15987134
-0.30621284 4.6533456 0.15987134
-0.29804716 4.6533456 0.15987134
-0.24905311 4.6533456 0.15987134
-0.20822473 4.6518822 0.15605968
-0.46508777 4.0258279 0.16428018
-0.46430662 4.1099534 0.16109788
-0.46208388 4.1559963 0.16624832
-0.45480698 4.1559963 0.16624832
-0.45245516 4.2004147 0.16464365
-0.44509816 4.2004147 0.16464365
-0.43774116 4.2004147 0.16464365
-0.43517312 4.2471533 0.16647577
-0.42029542 4.2471533 0.16647577
-0.43254721 4.2949433 0.16834891
0.11421762 4.4931173 0.16525191
0.1220947 4.4917059 0.16157496
0.16935717 4.4945288 0.16892886
0.17723425 4.4931173 0.16525191
0.18511131 4.4931173 0.16525191
0.1929884 4.4931173 0.16525191
0.20480402 4.4931173 0.16525191
0.21661963 4.4931173 0.16525191
0.22449671 4.4931173 0.16525191
0.23237379 4.4945288 0.16892886
0.24025086 4.4945288 0.16892886
0.25600502 4.4945288 0.16892886
0.27701056 4.493588 0.16647756
0.01594197 4.5452547 0.16350126
0.027898448 4.5452547 0.16350126
0.035869434 4.5452547 0.16350126
0.04384042 4.5452547 0.16350126
0.055796899 4.5452547 0.16350126
0.067753375 4.5452547 0.16350126
0.075724363 4.5452547 0.16350126
0.083695345 4.5452547 0.16350126
0.09565182 4.5452547 0.16350126
0.1076083 4.5452547 0.16350126
0.13550675 4.5452547 0.16350126
0.14746323 4.5452547 0.16350126
0.15543421 4.5452547 0.16350126
0.16340519 4.5452547 0.16350126
0.17137618 4.5452547 0.16350126
0.23514406 4.5452547 0.16350126
-0.39125708 4.6000938 0.16547394
-0.38318995 4.6000938 0.16547394
-0.27428332 4.6000938 0.16547394
-0.26218259 4.6000938 0.16547394
-0.23798111 4.6000938 0.16547394
-0.22588038 4.6000938 0.16547394
-0.21377964 4.6000938 0.16547394
-0.2057125 4.6000938 0.16547394
-0.19764534 4.6000938 0.16547394
-0.1855446 4.6000938 0.16547394
-0.17344387 4.6000938 0.16547394
-0.16537671 4.6000938 0.16547394
-0.15730955 4.6000938 0.16547394
-0.14520882 4.6000938 0.16547394
-0.13310808 4.6000938 0.16547394
-0.12504092 4.6000938 0.16547394
-0.11697377 4.6000938 0.16547394
-0.10487303 4.6000938 0.16547394
-0.092772298 4.6000938 0.16547394
-0.084705144 4.6000938 0.16547394
-0.076637983 4.6000938 0.16547394
-0.06453725 4.6000938 0.16547394
-0.052436516 4.6000938 0.16547394
-0.044369362 4.6000938 0.16547394
-0.036302205 4.6000938 0.16547394
-0.024201469 4.6000938 0.16547394
-0.012100735 4.6000938 0.16547394
-0.0040335781 4.6000938 0.16547394
0.0040335781 4.6000938 0.16547394
-0.37562108 4.6562719 0.16749465
-0.36337256 4.6562719 0.16749465
-0.35520688 4.6562719 0.16749465
-0.34704122 4.6562719 0.16749465
-0.3347927 4.6562719 0.16749465
-0.32254419 4.6562719 0.16749465
-0.3143785 4.6562719 0.16749465
-0.30621284 4.6562719 0.16749465
-0.29804716 4.6562719 0.16749465
-0.2898815 4.6562719 0.16749465
-0.25721878 4.6562719 0.16749465
-0.24905311 4.6562719 0.16749465
-0.42029542 4.2498193 0.17342055
0.16935717 4.4973516 0.17628276
0.17723425 4.4973516 0.17628276
0.18511131 4.4973516 0.17628276
0.1929884 4.4973516 0.17628276
0.204804 4.4973516 0.17628276
0.21661963 4.4973516 0.17628276
0.22449671 4.4973516 0.17628276
0.23237379 4.4973516 0.17628276
0.24025086 4.4973516 0.17628276
0.25600502 4.4973516 0.17628276
0.27569771 4.4973516 0.17628276
0.28751332 4.4973516 0.17628276
0.2953904 4.4973516 0.17628276
0.30326748 4.4973516 0.17628276
0.31508309 4.4973516 0.17628276
0.32689872 4.4973516 0.17628276
0.33477578 4.4973516 0.17628276
0.34265286 4.4973516 0.17628276
0.35446846 4.4973516 0.17628276
0.01594197 4.548111 0.17094278
0.027898448 4.548111 0.17094278
0.035869434 4.548111 0.17094278
0.04384042 4.548111 0.17094278
0.055796899 4.548111 0.17094278
0.067753375 4.548111 0.17094278
0.075724363 4.548111 0.17094278
0.083695345 4.548111 0.17094278
0.09565182 4.548111 0.17094278
0.1076083 4.548111 0.17094278
0.12355027 4.548111 0.17094278
0.13550675 4.548111 0.17094278
0.14746323 4.548111 0.17094278
0.15543421 4.548111 0.17094278
0.16340519 4.548111 0.17094278
0.25108603 4.548111 0.17094278
0.267028 4.548111 0.17094278
0.0039854925 4.5509677 0.1783843
0.01594197 4.5509677 0.1783843
0.027898448 4.5509677 0.1783843
0.035869434 4.5509677 0.1783843
0.04384042 4.5509677 0.1783843
0.055796899 4.5509677 0.1783843
0.067753375 4.5509677 0.1783843
0.075724363 4.5509677 0.1783843
0.083695345 4.5509677 0.1783843
0.09565182 4.5509677 0.1783843
0.1076083 4.5509677 0.1783843
0.11557928 4.5509677 0.1783843
0.12355027 4.5509677 0.1783843
0.13550675 4.5509677 0.1783843
0.14746323 4.5509677 0.1783843
0.15543421 4.5509677 0.1783843
0.16340519 4.5509677 0.1783843
0.25108603 4.5509677 0.1783843
0.267028 4.5509677 0.1783843
-0.39125708 4.6029849 0.17300522
-0.38318995 4.6029849 0.17300522
-0.29445121 4.6029849 0.17300522
-0.28638405 4.6029849 0.17300522
-0.27428332 4.6029849 0.17300522
-0.26218259 4.6029849 0.17300522
-0.25411543 4.6029849 0.17300522
-0.24604827 4.6029849 0.17300522
-0.23798111 4.6029849 0.17300522
-0.22588038 4.6029849 0.17300522
-0.21377964 4.6029849 0.17300522
-0.2057125 4.6029849 0.17300522
-0.19764534 4.6029849 0.17300522
-0.1855446 4.6029849 0.17300522
-0.17344387 4.6029849 0.17300522
-0.16537671 4.6029849 0.17300522
-0.15730955 4.6029849 0.17300522
-0.14520882 4.6029849 0.17300522
-0.13310808 4.6029849 0.17300522
-0.11697377 4.6029849 0.17300522
-0.10487303 4.6029849 0.17300522
-0.092772298 4.6029849 0.17300522
-0.084705144 4.6029849 0.17300522
-0.076637983 4.6029849 0.17300522
-0.06453725 4.6029849 0.17300522
-0.052436516 4.6029849 0.17300522
-0.044369362 4.6029849 0.17300522
-0.036302205 4.6029849 0.17300522
-0.024201469 4.6029849 0.17300522
-0.012100735 4.6029849 0.17300522
-0.0040335781 4.6029849 0.17300522
0.0040335781 4.6029849 0.17300522
-0.37562108 4.6591983 0.17511797
-0.36337256 4.6591983 0.17511797
-0.35520688 4.6591983 0.17511797
-0.34704122 4.6591983 0.17511797
-0.3347927 4.6591983 0.17511797
-0.32254419 4.6591983 0.17511797
-0.3143785 4.6591983 0.17511797
-0.30621284 4.6591983 0.17511797
-0.12656797 4.6591983 0.17511797
0.16935717 4.5001745 0.18363655
0.17723425 4.5001745 0.18363655
0.18511131 4.5001745 0.18363655
0.1929884 4.5001745 0.18363655
0.204804 4.5001745 0.18363655
0.21661963 4.5001745 0.18363655
0.22449671 4.5001745 0.18363655
0.23237379 4.5001745 0.18363655
0.2441894 4.5001745 0.18363655
0.25600502 4.5001745 0.18363655
0.2638821 4.5001745 0.18363655
0.27569771 4.5001745 0.18363655
0.28751332 4.5001745 0.18363655
0.2953904 4.5001745 0.18363655
0.30326748 4.5001745 0.18363655
0.31508309 4.5001745 0.18363655
0.32689872 4.5001745 0.18363655
0.33477578 4.5001745 0.18363655
0.34265286 4.5001745 0.18363655
0.35446846 4.5001745 0.18363655
0.0039854925 4.5538244 0.18582582
0.01594197 4.5538244 0.18582582
0.027898448 4.5538244 0.18582582
0.035869434 4.5538244 0.18582582
0.04384042 4.5538244 0.18582582
0.055796899 4.5538244 0.18582582
0.067753375 4.5538244 0.18582582
0.075724363 4.5538244 0.18582582
0.083695345 4.5538244 0.18582582
0.09565182 4.5538244 0.18582582
0.1076083 4.5538244 0.18582582
0.11557928 4.5538244 0.18582582
0.12355027 4.5538244 0.18582582
0.13550675 4.5538244 0.18582582
0.14746323 4.5538244 0.18582582
0.15543421 4.5538244 0.18582582
0.16340519 4.5538244 0.18582582
-0.39125708 4.605876 0.18053651
-0.33478698 4.6073217 0.18430221
-0.32671985 4.608767 0.18806791
-0.29445121 4.605876 0.18053651
-0.28638405 4.6073217 0.18430221
-0.27428332 4.6073217 0.18430221
-0.26218259 4.6073217 0.18430221
-0.25411543 4.6073217 0.18430221
-0.24604827 4.6073217 0.18430221
-0.23798111 4.6073217 0.18430221
-0.22588038 4.6073217 0.18430221
-0.21377964 4.6073217 0.18430221
-0.2057125 4.6073217 0.18430221
-0.19764534 4.6073217 0.18430221
-0.1855446 4.6073213 0.18430221
-0.17344387 4.6073217 0.18430221
-0.16537671 4.6073217 0.18430221
-0.15730955 4.6073217 0.18430221
-0.14520882 4.6073213 0.18430221
-0.13310808 4.6073217 0.18430221
-0.12504092 4.608767 0.18806791
-0.11697377 4.6073217 0.18430221
-0.10487304 4.6073217 0.18430221
-0.092772298 4.6073217 0.18430221
-0.084705144 4.6073217 0.18430221
-0.076637983 4.6073217 0.18430221
-0.06453725 4.6073217 0.18430221
-0.052436516 4.6073217 0.18430221
-0.044369362 4.6073217 0.18430221
-0.036302205 4.6073217 0.18430221
-0.024201468 4.6073213 0.18430221
-0.012100735 4.6073217 0.18430221
-0.0040335781 4.6073217 0.18430221
-0.3878696 4.6621246 0.18274128
-0.37562108 4.6621246 0.18274128
-0.36337256 4.6621246 0.18274128
-0.35520688 4.6621246 0.18274128
-0.34704122 4.6621246 0.18274128
-0.33070987 4.6621246 0.18274128
-0.32254419 4.6621246 0.18274128
-0.3143785 4.6621246 0.18274128
-0.30621284 4.6621246 0.18274128
-0.12656797 4.6621246 0.18274128
0.16935717 4.5058203 0.19834447
0.17723425 4.5044088 0.19466746
0.18511131 4.5044088 0.19466746
0.1929884 4.5044088 0.19466746
0.204804 4.5044088 0.19466746
0.21661963 4.5044088 0.19466746
0.22449671 4.5044088 0.19466746
0.23237379 4.5044088 0.19466746
0.2441894 4.5044088 0.19466746
0.25600502 4.5044088 0.19466746
0.2638821 4.5044088 0.19466746
0.27569771 4.5044088 0.19466746
0.28751332 4.5044088 0.19466746
0.2953904 4.5044088 0.19466746
0.30326748 4.5044088 0.19466746
0.31508309 4.5044088 0.19466746
0.32689872 4.5044088 0.19466746
0.33477578 4.5044088 0.19466746
0.34265286 4.5044088 0.19466746
0.35446846 4.5044088 0.19466746
0.0039854925 4.5566807 0.19326746
0.01594197 4.5566807 0.19326746
0.027898448 4.5566807 0.19326746
0.035869434 4.5566807 0.19326746
0.04384042 4.5566807 0.19326746
0.055796899 4.5566807 0.19326746
0.067753375 4.5566807 0.19326746
0.075724363 4.5566807 0.19326746
0.083695345 4.5566807 0.19326746
0.09565182 4.5566807 0.19326746
0.1076083 4.5566807 0.19326746
0.11557928 4.5566807 0.19326746
0.12355027 4.5566807 0.19326746
0.13550675 4.5566807 0.19326746
0.14746323 4.5566807 0.19326746
0.15543421 4.5566807 0.19326746
0.16340519 4.5566807 0.19326746
0.17137618 4.5566807 0.19326746
-0.27428332 4.6116581 0.19559932
-0.26218259 4.6116581 0.19559932
-0.25411543 4.6116581 0.19559932
-0.24604827 4.6116581 0.19559932
-0.23798111 4.6116581 0.19559932
-0.22588038 4.6116581 0.19559932
-0.21377964 4.6116581 0.19559932
-0.2057125 4.6116581 0.19559932
-0.19764534 4.6116581 0.19559932
-0.1855446 4.6116581 0.19559932
-0.17344387 4.6116581 0.19559932
-0.16537671 4.6116581 0.19559932
-0.15730955 4.6116581 0.19559932
-0.14520882 4.6116581 0.19559932
-0.13310808 4.6116581 0.19559932
-0.12504092 4.6116581 0.19559932
-0.11697377 4.6116581 0.19559932
-0.10487303 4.6116581 0.19559932
-0.092772298 4.6116581 0.19559932
-0.084705144 4.6116581 0.19559932
-0.076637983 4.6116581 0.19559932
-0.06453725 4.6116581 0.19559932
-0.052436516 4.6116581 0.19559932
-0.044369362 4.6116581 0.19559932
-0.036302205 4.6116581 0.19559932
-0.024201469 4.6116581 0.19559932
-0.012100735 4.6116581 0.19559932
-0.0040335781 4.6116581 0.19559932
-0.32254419 4.665051 0.19036472
-0.29804716 4.6665144 0.19417632
0.35423365 4.4561434 0.20330298
0.011815616 4.5086432 0.20569825
0.16541862 4.5086432 0.20569825
0.17723425 4.5086432 0.20569825
0.18511131 4.5086432 0.20569825
0.1929884 4.5086432 0.20569825
0.204804 4.5086432 0.20569825
0.21661963 4.5086432 0.20569825
0.22449671 4.5086432 0.20569825
0.23237379 4.5086432 0.20569825
0.2441894 4.5086432 0.20569825
0.25600502 4.5086432 0.20569825
0.2638821 4.5086432 0.20569825
0.27569771 4.5086432 0.20569825
0.28751332 4.5086432 0.20569825
0.2953904 4.5086432 0.20569825
0.30326748 4.5086432 0.20569825
0.31508309 4.5086432 0.20569825
0.32689872 4.5086432 0.20569825
0.33477578 4.5086432 0.20569825
0.34265286 4.5086432 0.20569825
0.35052994 4.5086432 0.20569825
-0.051811405 4.5595374 0.20070899
0.0039854925 4.5595374 0.20070899
0.01594197 4.5595374 0.20070899
0.027898448 4.5595374 0.20070899
0.055796899 4.5595374 0.20070899
0.075724363 4.5595374 0.20070899
0.083695345 4.5595374 0.20070899
0.09565182 4.5595374 0.20070899
0.1076083 4.5595374 0.20070899
0.11557928 4.5595374 0.20070899
0.12355027 4.5595374 0.20070899
0.13550675 4.5595374 0.20070899
0.14746323 4.5595374 0.20070899
0.15543421 4.5595374 0.20070899
0.16340519 4.5595374 0.20070899
-0.051811405 4.5623941 0.20815063
0.0039854925 4.5623941 0.20815063
0.019927463 4.5623941 0.20815063
0.027898448 4.5623941 0.20815063
0.035869434 4.5623941 0.20815063
0.04384042 4.5623941 0.20815063
0.051811405 4.5623941 0.20815063
0.083695345 4.5623941 0.20815063
0.09565182 4.5623941 0.20815063
0.1076083 4.5623941 0.20815063
0.11557928 4.5623941 0.20815063
0.12355027 4.5623941 0.20815063
0.13550675 4.5623941 0.20815063
0.14746323 4.5623941 0.20815063
0.15543421 4.5623941 0.20815063
-0.19764534 4.6145487 0.2031306
-0.1855446 4.6145487 0.2031306
-0.17344387 4.6145487 0.2031306
-0.16537671 4.6145487 0.2031306
-0.15730955 4.6145487 0.2031306
-0.14520882 4.6145487 0.2031306
-0.13310808 4.6145487 0.2031306
-0.12504092 4.6145487 0.2031306
-0.11697377 4.6145487 0.2031306
-0.10487303 4.6145487 0.2031306
-0.092772298 4.6145487 0.2031306
-0.084705144 4.6145487 0.2031306
-0.076637983 4.6145487 0.2031306
-0.06453725 4.6145487 0.2031306
-0.044369362 4.6145487 0.2031306
-0.036302205 4.6145487 0.2031306
-0.024201469 4.6145487 0.2031306
-0.012100735 4.6145487 0.2031306
-0.0040335781 4.6145487 0.2031306
0.036302205 4.6145487 0.2031306
0.044369362 4.6145487 0.2031306
0.06857083 4.6145487 0.2031306
0.79363012 4.3124661 0.2139979
0.74560034 4.3601785 0.21288168
0.77603298 4.3615417 0.21643311
0.78744525 4.3615417 0.21643311
0.79505342 4.362905 0.21998453
0.70416039 4.4103675 0.21533215
0.71570396 4.4103675 0.21533215
0.72724766 4.4103675 0.21533215
0.73494339 4.4103675 0.21533215
0.74263912 4.4103675 0.21533215
0.76572633 4.4103675 0.21533215
0.77342206 4.4103675 0.21533215
0.35423365 4.4589338 0.21057129
0.73571604 4.4589338 0.21057129
0.18511131 4.511466 0.21305215
0.1929884 4.511466 0.21305215
0.204804 4.511466 0.21305215
0.21661963 4.511466 0.21305215
0.22449671 4.511466 0.21305215
0.23237379 4.511466 0.21305215
0.2441894 4.511466 0.21305215
0.25600502 4.511466 0.21305215
0.2638821 4.511466 0.21305215
0.27569771 4.511466 0.21305215
0.28751332 4.511466 0.21305215
0.2953904 4.511466 0.21305215
0.30326748 4.511466 0.21305215
0.31508309 4.511466 0.21305215
0.32689872 4.511466 0.21305215
0.33477578 4.511466 0.21305215
0.34265286 4.511466 0.21305215
0.35052994 4.511466 0.21305215
-0.055796899 4.5652504 0.21559203
0.01594197 4.5652504 0.21559203
0.027898448 4.5652504 0.21559203
0.035869434 4.5652504 0.21559203
0.04384042 4.5652504 0.21559203
0.051811405 4.5652504 0.21559203
0.083695345 4.5652504 0.21559203
0.09565182 4.5652504 0.21559203
0.1076083 4.5652504 0.21559203
0.11557928 4.5652504 0.21559203
0.12355027 4.5652504 0.21559203
0.13949224 4.5652504 0.21559203
0.14746323 4.5652504 0.21559203
0.15543421 4.5652504 0.21559203
0.16340519 4.5652504 0.21559203
0.17536168 4.5652504 0.21559203
-0.11697377 4.6174397 0.21066189
-0.10487303 4.6174397 0.21066189
-0.092772298 4.6174397 0.21066189
-0.084705144 4.6174397 0.21066189
-0.076637983 4.6174397 0.21066189
-0.06453725 4.6174397 0.21066189
-0.044369362 4.6174397 0.21066189
-0.036302205 4.6174397 0.21066189
-0.024201469 4.6174397 0.21066189
-0.012100735 4.6174397 0.21066189
-0.0040335781 4.6174397 0.21066189
0.06453725 4.6174397 0.21066189
0.076637983 4.6174397 0.21066189
-0.036302205 4.6203308 0.21819329
-0.024201469 4.6203308 0.21819329
-0.012100735 4.6203308 0.21819329
-0.0040335781 4.6203308 0.21819329
0.0040335781 4.6203308 0.21819329
0.06453725 4.6203308 0.21819329
0.076637983 4.6203308 0.21819329
0.13310808 4.6203308 0.21819329
0.79363012 4.3165102 0.22453225
0.76462072 4.3656316 0.22708738
0.77603298 4.3656316 0.22708738
0.78744525 4.3656316 0.22708738
0.79505342 4.3656316 0.22708738
0.71442133 4.4140449 0.22491165
0.72724766 4.4145041 0.22610909
0.73494339 4.4145041 0.22610909
0.74263912 4.4145041 0.22610909
0.75418276 4.4145041 0.22610909
0.76572633 4.4145041 0.22610909
0.77342206 4.4131255 0.22251678
0.35423365 4.4645138 0.22510779
0.10634054 4.5171118 0.22775996
0.13784885 4.5171118 0.22775996
0.14572594 4.5171118 0.22775996
0.16541862 4.5171118 0.22775996
0.17723425 4.5142889 0.22040606
0.18511131 4.5157003 0.22408301
0.1929884 4.5157003 0.22408301
0.20480402 4.5157003 0.22408301
0.21661963 4.5157003 0.22408301
0.22449671 4.5157003 0.22408301
0.23237379 4.5157003 0.22408301
0.24418938 4.5157003 0.22408301
0.25600502 4.5157003 0.22408301
0.2638821 4.5157003 0.22408301
0.27569771 4.5157003 0.22408301
0.28751332 4.5157003 0.22408301
0.2953904 4.5157003 0.22408301
0.30326748 4.5157003 0.22408301
0.31508309 4.5157003 0.22408301
0.32689872 4.5157003 0.22408301
0.33477578 4.5157003 0.22408301
0.34265286 4.5157003 0.22408301
0.35315561 4.5152297 0.22285736
0.027898448 4.5681071 0.22303355
0.035869434 4.5681071 0.22303355
0.04384042 4.5681071 0.22303355
0.055796899 4.5681071 0.22303355
0.067753375 4.5681071 0.22303355
0.075724363 4.5681071 0.22303355
0.083695345 4.5681071 0.22303355
0.09565182 4.5681071 0.22303355
0.1076083 4.5681071 0.22303355
0.11557928 4.5681071 0.22303355
0.12355027 4.5681071 0.22303355
0.13550675 4.5681071 0.22303355
0.14746323 4.5681071 0.22303355
0.15543421 4.5681071 0.22303355
0.16340519 4.5681071 0.22303355
0.17137618 4.5681071 0.22303355
0.77482373 4.3192058 0.2315551
0.75701261 4.3683581 0.23419023
0.76462072 4.3683581 0.23419023
0.7722289 4.3683581 0.23419023
0.79505342 4.3683581 0.23419023
0.71185613 4.4186411 0.23688591
0.72724766 4.4186411 0.23688591
0.73494339 4.4186411 0.23688591
0.74263912 4.4186411 0.23688591
0.7541827 4.4186411 0.23688591
0.72793067 4.4673038 0.2323761
0.72793067 4.4700937 0.23964429
0.16541862 4.5199347 0.23511374
0.17723425 4.5199347 0.23511374
0.18511131 4.5199347 0.23511374
0.1929884 4.5199347 0.23511374
0.204804 4.5199347 0.23511374
0.21661963 4.5199347 0.23511374
0.22449671 4.5199347 0.23511374
0.23237379 4.5199347 0.23511374
0.2441894 4.5199347 0.23511374
0.25600502 4.5199347 0.23511374
0.2638821 4.5199347 0.23511374
0.27569771 4.5199347 0.23511374
0.28751332 4.5199347 0.23511374
0.2953904 4.5199347 0.23511374
0.30326748 4.5199347 0.23511374
0.31508309 4.5199347 0.23511374
0.32689872 4.5199347 0.23511374
0.33477578 4.5199347 0.23511374
0.34265286 4.5199347 0.23511374
0.35446846 4.5199347 0.23511374
0.11557928 4.5709634 0.23047519
0.12355027 4.5709634 0.23047519
0.13152125 4.5709634 0.23047519
0.15543421 4.5723915 0.23419595
0.17934717 4.5709634 0.23047519
0.7265799 4.3738112 0.24839592
0.73418808 4.372448 0.2448445
0.74686837 4.3719935 0.24366069
0.75701261 4.372448 0.2448445
0.76462072 4.3738112 0.24839592
0.77603298 4.372448 0.2448445
0.78744525 4.372448 0.2448445
0.79505342 4.372448 0.2448445
0.8026616 4.3738112 0.24839592
0.71570396 4.4213991 0.24407053
0.73494339 4.4213991 0.24407053
0.77342206 4.4213991 0.24407053
0.69678926 4.4728837 0.2469126
0.70457458 4.4728837 0.2469126
0.73571604 4.4728837 0.2469126
0.27569771 4.524169 0.24614465
0.28751332 4.524169 0.24614465
0.2953904 4.524169 0.24614465
0.30326748 4.524169 0.24614465
0.31508309 4.524169 0.24614465
0.32689872 4.524169 0.24614465
0.33477578 4.524169 0.24614465
0.34265286 4.524169 0.24614465
0.35446846 4.524169 0.24614465
0.7265799 4.3765378 0.25549877
0.73418808 4.3765378 0.25549877
0.74179626 4.3765378 0.25549877
0.77603298 4.3765378 0.25549877
0.78744525 4.3765378 0.25549877
0.7169866 4.425076 0.25364992
0.7541827 4.4255362 0.25484735
0.76572633 4.4269147 0.25843966
0.77342206 4.4269147 0.25843966
0.80420506 4.4269147 0.25843966
0.69678926 4.4756737 0.25418091
0.70457458 4.4756737 0.25418091
0.73571604 4.4756737 0.25418091
0.71897173 4.3792644 0.26260161
0.7265799 4.3792644 0.26260161
0.73418808 4.3792644 0.26260161
0.74179626 4.3792644 0.26260161
0.77603298 4.3792644 0.26260161
0.78744525 4.3792644 0.26260161
0.79505342 4.3792644 0.26260161
0.71897173 4.3819909 0.26970446
0.7265799 4.3819909 0.26970446
0.77983707 4.3819909 0.26970446
0.78744525 4.3819909 0.26970446
0.75803059 4.4296727 0.2656244
0.76572633 4.4296727 0.2656244
0.77342206 4.4296727 0.2656244
0.69678926 4.4784636 0.2614491
0.70457458 4.4784636 0.2614491
0.71235996 4.4784636 0.2614491
0.72014534 4.4784636 0.2614491
0.73571604 4.4784636 0.2614491
0.69678926 4.4812536 0.26871729
0.70457458 4.4812536 0.26871729
0.71235996 4.4812536 0.26871729
0.724038 4.4812536 0.26871729
0.71955186 4.4324307 0.27280891
0.74263912 4.4324307 0.27280891
0.7541827 4.4324307 0.27280891
0.76572633 4.4324307 0.27280891
0.77342206 4.4324307 0.27280891
0.7811178 4.4324307 0.27280891
0.69678926 4.4840436 0.2759856
0.70457458 4.4840436 0.2759856
0.71235996 4.4840436 0.2759856
0.72014534 4.4840436 0.2759856
