# .PCD v0.7 - Point Cloud Data file format
VERSION 0.7
FIELDS x y z
SIZE 4 4 4
TYPE F F F
COUNT 1 1 1
WIDTH 1392
HEIGHT 1
VIEWPOINT 0 0 0 1 0 0 0
POINTS 1392
DATA ascii
0.0036384559 4.0477719 -0.11568522
0.014553823 4.0477719 -0.11568522
0.02546919 4.0477719 -0.11568522
0.032746103 4.0477719 -0.11568522
0.043661468 4.0477719 -0.11568522
0.054576837 4.0477719 -0.11568522
0.065492205 4.0477719 -0.11568522
0.076407574 4.0477719 -0.11568522
0.30926874 4.0477719 -0.11568522
-0.45613366 4.0949545 -0.11009014
-0.44509816 4.0949545 -0.11009014
-0.36417121 4.093636 -0.11352432
-0.35681424 4.093636 -0.11352432
-0.34945723 4.0923176 -0.1169585
-0.26117331 4.093636 -0.11352432
-0.25381631 4.093636 -0.11352432
-0.24645931 4.093636 -0.11352432
-0.23542382 4.093636 -0.11352432
-0.21703133 4.0949545 -0.11009014
-0.18392485 4.093636 -0.11352432
-0.17288937 4.0949545 -0.11009014
-0.16553237 4.0949545 -0.11009014
-0.15327071 4.0940757 -0.11237959
-0.14346139 4.093636 -0.11352432
-0.13610439 4.093636 -0.11352432
-0.1250689 4.093636 -0.11352432
-0.11403341 4.093636 -0.11352432
-0.10667641 4.093636 -0.11352432
-0.095640928 4.093636 -0.11352432
-0.084605433 4.093636 -0.11352432
-0.077248439 4.093636 -0.11352432
-0.066212952 4.093636 -0.11352432
-0.055177458 4.093636 -0.11352432
-0.044141971 4.093636 -0.11352432
-0.033106476 4.093636 -0.11352432
-0.02574948 4.093636 -0.11352432
-0.014713989 4.093636 -0.11352432
-0.0036784972 4.0923176 -0.1169585
-0.46492854 4.1378536 -0.11825991
-0.45377028 4.1378536 -0.11825991
-0.44261199 4.1378536 -0.11825991
-0.43517312 4.1378536 -0.11825991
-0.42401484 4.1378536 -0.11825991
-0.41285655 4.1378536 -0.11825991
-0.40541768 4.1378536 -0.11825991
-0.39425939 4.1378536 -0.11825991
-0.38310114 4.1378536 -0.11825991
-0.37566227 4.1378536 -0.11825991
-0.34590685 4.1378536 -0.11825991
-0.33474857 4.1378536 -0.11825991
-0.32359028 4.1378536 -0.11825991
-0.31615141 4.1378536 -0.11825991
-0.30499312 4.1378536 -0.11825991
-0.29383484 4.1378536 -0.11825991
-0.286396 4.1378536 -0.11825991
-0.27523768 4.1378536 -0.11825991
-0.22688513 4.1378536 -0.11825991
-0.21572685 4.1378536 -0.11825991
-0.20456856 4.1378536 -0.11825991
-0.19712971 4.1378536 -0.11825991
-0.17481314 4.1378536 -0.11825991
-0.16737428 4.1378536 -0.11825991
-0.15993541 4.1378536 -0.11825991
-0.44261199 4.1405196 -0.11131513
-0.43517312 4.1405196 -0.11131513
-0.42401484 4.1405196 -0.11131513
-0.41285655 4.1405196 -0.11131513
-0.40541768 4.1405196 -0.11131513
-0.39425939 4.1405196 -0.11131513
-0.38310114 4.1405196 -0.11131513
-0.37566227 4.1405196 -0.11131513
-0.35334569 4.1405196 -0.11131513
-0.34590685 4.1405196 -0.11131513
-0.33474857 4.1405196 -0.11131513
-0.32359028 4.1405196 -0.11131513
-0.31615141 4.1405196 -0.11131513
-0.30499312 4.1405196 -0.11131513
-0.29383484 4.1405196 -0.11131513
-0.286396 4.1405196 -0.11131513
-0.27523768 4.1405196 -0.11131513
-0.22688513 4.1405196 -0.11131513
-0.21200742 4.1405196 -0.11131513
-0.20456856 4.1405196 -0.11131513
-0.19712971 4.1405196 -0.11131513
0.81445408 2.6853673 -0.10648921
0.82414997 2.6853673 -0.10648921
0.83384585 2.6853676 -0.10648921
0.80527276 2.7055342 -0.10590038
0.81308621 2.7058842 -0.10498857
0.82773638 2.7076344 -0.10042953
-0.65308565 2.970974 -0.1025939
-0.64505589 2.9700148 -0.1050927
-0.63702619 2.970974 -0.1025939
-0.67455149 2.9949775 -0.10342291
-0.66645682 2.9949775 -0.10342291
-0.6502676 2.9959445 -0.10090393
-0.63407838 2.9949775 -0.10342291
-0.62868196 2.9949775 -0.10342291
-0.62836218 3.0183969 -0.10680479
-0.62836218 3.0203466 -0.10172576
-0.62529445 3.0441651 -0.10512149
-0.62217575 3.0683777 -0.10857338
-0.61664528 3.0683777 -0.10857338
-0.62217575 3.0703597 -0.1034103
-0.61388004 3.0703597 -0.1034103
-0.61342824 3.0939932 -0.10947978
-0.61296862 3.1220543 -0.10515136
-0.60453326 3.1220543 -0.10515136
-0.56516832 3.1220543 -0.10515136
-0.60399407 3.1485586 -0.10604388
-0.59548712 3.1485586 -0.10604388
-0.58414447 3.1485586 -0.10604388
-0.57563752 3.1485586 -0.10604388
-0.60399407 3.1505911 -0.10074931
-0.59832275 3.1505911 -0.10074931
-0.58414447 3.1505911 -0.10074931
-0.57563752 3.1505911 -0.10074931
-0.56996626 3.1505911 -0.10074931
-0.59772569 3.1775661 -0.10161191
-0.57145864 3.5112782 -0.10333222
-0.56514418 3.5112782 -0.10333222
-0.55567253 3.5112784 -0.10333222
-0.55141091 3.5447717 -0.1043179
-0.54503626 3.5447717 -0.1043179
-0.54384917 3.5800629 -0.10231829
-0.54480499 3.6133225 -0.1073579
-0.53614014 3.6148751 -0.10331321
-0.5282796 3.6503701 -0.10432756
-0.5401457 3.6865678 -0.10536218
-0.5235768 3.6865678 -0.10536218
-0.51363552 3.6865678 -0.10536218
-0.52547359 3.7258887 -0.10016811
-0.5187797 3.7258887 -0.10016811
-0.51388538 3.7623696 -0.10433769
-0.50374293 3.7623696 -0.10433769
-0.50206017 3.8020434 -0.10221553
-0.50724381 3.8388255 -0.10971367
-0.50556225 3.8813717 -0.10434806
-0.49510232 3.8813717 -0.10434806
-0.48464242 3.8813717 -0.10434806
-0.4827047 3.9222889 -0.10544825
-0.47565791 3.9222889 -0.10544825
-0.47360373 3.964077 -0.10657156
-0.46648186 3.964077 -0.10657156
-0.45936 3.964077 -0.10657156
-0.46430662 4.0093441 -0.10099876
0.025194932 4.0093441 -0.10099876
0.035992764 4.0093441 -0.10099876
0.046790589 4.0093441 -0.10099876
0.061187692 4.0093441 -0.10099876
0.086382627 4.0067644 -0.10771918
0.097180456 4.0067644 -0.10771918
0.10437901 4.0067644 -0.10771918
0.11517684 4.0067644 -0.10771918
0.12597467 4.0067644 -0.10771918
0.13317321 4.0067644 -0.10771918
0.14757033 4.0067644 -0.10771918
0.15476887 4.0067644 -0.10771918
0.16556671 4.0067644 -0.10771918
0.17636453 4.0067644 -0.10771918
0.18356308 4.0067644 -0.10771918
0.19436091 4.0067644 -0.10771918
0.20515874 4.0067644 -0.10771918
0.21235728 4.0067644 -0.10771918
0.2267544 4.0067644 -0.10771918
0.24835005 4.0080543 -0.10435897
0.2555486 4.0067644 -0.10771918
0.26634645 4.0067644 -0.10771918
0.34553051 4.0067644 -0.10771918
0.35632834 4.0067644 -0.10771918
0.36352688 4.0067644 -0.10771918
0.37432474 4.0067644 -0.10771918
0.38512254 4.0080543 -0.10435897
-0.46208388 4.0516834 -0.10549492
-0.0036384559 4.0516834 -0.10549492
0.0036384559 4.0503798 -0.10889173
0.014553823 4.0516834 -0.10549492
0.02546919 4.0503798 -0.10889173
0.032746103 4.0503798 -0.10889173
0.043661468 4.0503798 -0.10889173
0.054576837 4.0516834 -0.10549492
0.066705026 4.051249 -0.10662719
0.076407574 4.0516834 -0.10549492
0.083684482 4.0529876 -0.10209811
0.09459985 4.0529876 -0.10209811
0.10551522 4.0529876 -0.10209811
0.11279213 4.0529876 -0.10209811
0.1237075 4.0529876 -0.10209811
0.13462286 4.0529876 -0.10209811
0.14432542 4.0521183 -0.10436264
0.15645359 4.0529876 -0.10209811
0.1637305 4.0529876 -0.10209811
0.17464587 4.0529876 -0.10209811
0.18556124 4.0529876 -0.10209811
0.19283816 4.0529876 -0.10209811
0.20375353 4.0529876 -0.10209811
0.21466888 4.0529876 -0.10209811
0.22437145 4.0521183 -0.10436264
0.23649962 4.0516834 -0.10549492
0.24377653 4.0516834 -0.10549492
0.25833035 4.0529876 -0.10209811
0.26560727 4.0529876 -0.10209811
0.27288419 4.0529876 -0.10209811
0.28379953 4.0516834 -0.10549492
0.29471493 4.0516834 -0.10549492
0.30563027 4.0516834 -0.10549492
0.31654567 4.0516834 -0.10549492
0.32382256 4.0516834 -0.10549492
0.33473793 4.0516834 -0.10549492
0.3456533 4.0529876 -0.10209811
0.35293022 4.0529876 -0.10209811
0.36384559 4.0529876 -0.10209811
0.37476096 4.0529876 -0.10209811
0.38203785 4.0529876 -0.10209811
-0.45613366 4.0975909 -0.10322177
-0.44509816 4.0975909 -0.10322177
-0.40095618 4.0975909 -0.10322177
-0.36417121 4.0975909 -0.10322177
-0.35681424 4.0975909 -0.10322177
-0.32002926 4.0975909 -0.10322177
-0.28324428 4.0975909 -0.10322177
-0.25381631 4.0975909 -0.10322177
-0.24645931 4.0975909 -0.10322177
-0.23542382 4.0975909 -0.10322177
-0.21703133 4.0975909 -0.10322177
-0.20599584 4.0975909 -0.10322177
-0.19496036 4.0975909 -0.10322177
-0.18392485 4.0975909 -0.10322177
-0.1250689 4.0975909 -0.10322177
-0.11403341 4.0975909 -0.10322177
-0.10667641 4.0975909 -0.10322177
-0.095640928 4.0975909 -0.10322177
-0.084605433 4.0975909 -0.10322177
-0.077248439 4.0975909 -0.10322177
-0.066212952 4.0975909 -0.10322177
-0.055177458 4.0975909 -0.10322177
-0.044141967 4.0975909 -0.10322177
-0.033106476 4.0975909 -0.10322177
-0.02574948 4.0975909 -0.10322177
-0.01471399 4.0975909 -0.10322177
0.0036784972 4.0975909 -0.10322177
-0.44261199 4.1431851 -0.10437036
-0.43517312 4.1431851 -0.10437036
-0.42401484 4.1431851 -0.10437036
-0.41285655 4.1431851 -0.10437036
-0.39425939 4.1431851 -0.10437036
-0.38310114 4.1431851 -0.10437036
-0.37566227 4.1431851 -0.10437036
-0.35334569 4.1431851 -0.10437036
-0.34590685 4.1431851 -0.10437036
-0.33474857 4.1431851 -0.10437036
-0.31615141 4.1431851 -0.10437036
-0.30499312 4.1431851 -0.10437036
-0.29383484 4.1431851 -0.10437036
-0.27523768 4.1431851 -0.10437036
-0.26407942 4.1431851 -0.10437036
-0.22688513 4.1431851 -0.10437036
-0.17481314 4.1431851 -0.10437036
-0.16737428 4.1431851 -0.10437036
-0.156216 4.1431851 -0.10437036
-0.14505771 4.1431851 -0.10437036
-0.13761885 4.1431851 -0.10437036
0.80395013 2.6891317 -0.096682966
0.81445408 2.6888423 -0.097437292
0.82657391 2.6888423 -0.097437292
0.83384585 2.6888423 -0.097437292
0.80475819 2.6914482 -0.090648413
0.81445408 2.6914482 -0.090648413
0.82657391 2.6914482 -0.090648413
0.83384585 2.6914482 -0.090648413
0.82773638 2.7093844 -0.095870495
0.82773638 2.7111344 -0.091311395
-0.66111541 2.97577 -0.090099931
-0.65308565 2.9748106 -0.092598736
-0.64505589 2.9738514 -0.095097542
-0.63702619 2.9738514 -0.095097542
-0.67455149 2.9988456 -0.093346924
-0.66645682 2.9978786 -0.095865905
-0.6502676 2.9998124 -0.090827942
-0.64487118 2.9998124 -0.090827942
-0.63947475 2.9998124 -0.090827942
-0.63652271 3.0232708 -0.094107211
-0.62836218 3.0222962 -0.096646726
-0.63352197 3.0490794 -0.092319608
-0.62529445 3.0480967 -0.094879985
-0.62217575 3.0733328 -0.095665544
-0.61664528 3.0733328 -0.095665544
-0.61621654 3.0989895 -0.096464157
-0.61296862 3.1250772 -0.09727627
-0.60453326 3.1250772 -0.09727627
-0.60399407 3.1536398 -0.092807353
-0.59832275 3.1526234 -0.095454693
-0.59486574 3.1796157 -0.096271932
-0.583426 3.1796157 -0.096271932
-0.60344553 3.1816657 -0.090932071
-0.59486574 3.1816657 -0.090932071
-0.583426 3.1816657 -0.090932071
-0.57145864 3.5146728 -0.094489694
-0.56514418 3.5146728 -0.094489694
-0.55567253 3.5146728 -0.094489694
-0.55141091 3.5481985 -0.095391035
-0.55028522 3.5835228 -0.093305349
-0.54384917 3.5835228 -0.093305349
-0.54263878 3.6183686 -0.094212651
-0.53614014 3.6195331 -0.091179132
-0.54140455 3.6527219 -0.098201036
-0.53484207 3.6550736 -0.092074394
-0.5401457 3.6889429 -0.099174857
-0.53351814 3.6889429 -0.099174857
-0.52689058 3.6889429 -0.099174857
-0.53351814 3.691318 -0.092987418
-0.5235768 3.691318 -0.092987418
-0.5187797 3.7282877 -0.0939188
-0.51388538 3.7660046 -0.094868779
-0.50889093 3.8044913 -0.095838428
-0.50379318 3.8450084 -0.093606412
-0.50556225 3.8838708 -0.097838044
-0.49510232 3.8851204 -0.094582975
-0.48464242 3.8838708 -0.097838044
-0.48505363 3.9264977 -0.094483577
-0.47565791 3.9260769 -0.095580041
-0.47360373 3.9679055 -0.096598446
-0.46648186 3.9666293 -0.099922895
-0.47150517 4.0119238 -0.094278336
-0.46430662 4.0119238 -0.094278336
0.010797828 4.0119238 -0.094278336
0.24835005 4.0119238 -0.094278336
0.377924 4.0119238 -0.094278336
-0.46208388 4.0555954 -0.095304608
-0.0036384559 4.0555954 -0.095304608
0.0036384559 4.0555954 -0.095304608
0.018192278 4.0555954 -0.095304608
0.02546919 4.0555954 -0.095304608
0.032746103 4.0555954 -0.095304608
0.043661468 4.0555954 -0.095304608
0.054576837 4.0555954 -0.095304608
0.065492205 4.0555954 -0.095304608
0.076407574 4.0555954 -0.095304608
0.083684482 4.0555954 -0.095304608
0.09459985 4.0555954 -0.095304608
0.10551522 4.0555954 -0.095304608
0.11279213 4.0555954 -0.095304608
0.14917669 4.0555954 -0.095304608
0.15645359 4.0555954 -0.095304608
0.1637305 4.0555954 -0.095304608
0.17464587 4.0555954 -0.095304608
0.18556124 4.0555954 -0.095304608
0.19283816 4.0555954 -0.095304608
0.20375353 4.0555954 -0.095304608
0.21466888 4.0555954 -0.095304608
0.22558427 4.0555954 -0.095304608
0.23649962 4.0555954 -0.095304608
0.24377653 4.0555954 -0.095304608
0.25833035 4.0555954 -0.095304608
0.26560727 4.0555954 -0.095304608
0.27288419 4.0555954 -0.095304608
0.28379953 4.0555954 -0.095304608
0.29471493 4.0555954 -0.095304608
0.35293022 4.0555954 -0.095304608
0.36384559 4.0555954 -0.095304608
0.37476096 4.0555954 -0.095304608
0.38931477 4.0555954 -0.095304608
-0.45613366 4.1002274 -0.096353531
-0.44509816 4.1002274 -0.096353531
-0.36417121 4.1002274 -0.096353531
-0.35681424 4.1002274 -0.096353531
-0.32002926 4.1002274 -0.096353531
-0.25381631 4.1002274 -0.096353531
-0.24645931 4.1002274 -0.096353531
-0.077248439 4.1002274 -0.096353531
-0.04046347 4.1002274 -0.096353531
-0.033106476 4.1002274 -0.096353531
-0.02574948 4.1002274 -0.096353531
-0.01471399 4.1002274 -0.096353531
0.1250689 4.1002274 -0.096353531
0.13610439 4.1002274 -0.096353531
0.14346139 4.1002274 -0.096353531
0.30531526 4.1002274 -0.096353531
0.31267226 4.1002274 -0.096353531
0.32370776 4.1002274 -0.096353531
0.33474323 4.1002274 -0.096353531
0.34577873 4.1002274 -0.096353531
-0.44261199 4.1458511 -0.09742558
-0.43517312 4.1471844 -0.093953192
-0.42401487 4.1471844 -0.093953192
-0.41285655 4.1471844 -0.093953192
-0.40541768 4.1471844 -0.093953192
-0.39425942 4.1471844 -0.093953192
-0.38310114 4.1471844 -0.093953192
-0.37566227 4.1471844 -0.093953192
-0.3682234 4.1485171 -0.090480804
-0.35334569 4.1471844 -0.093953192
-0.34590685 4.1471844 -0.093953192
-0.33474854 4.1471844 -0.093953192
-0.32359028 4.1485171 -0.090480804
-0.31615141 4.1471844 -0.093953192
-0.30499312 4.1471844 -0.093953192
-0.29383484 4.1471844 -0.093953192
-0.286396 4.1471844 -0.093953192
-0.27647749 4.14674 -0.095110655
-0.26407942 4.1471844 -0.093953192
-0.25664055 4.1485171 -0.090480804
-0.24424247 4.1476283 -0.09279573
-0.23432399 4.1471844 -0.093953192
-0.22688513 4.1471844 -0.093953192
-0.21572685 4.1471844 -0.093953192
-0.20456856 4.1471844 -0.093953192
-0.19712971 4.1471844 -0.093953192
-0.18597141 4.1471844 -0.093953192
-0.17481314 4.1471844 -0.093953192
-0.16737428 4.1458511 -0.09742558
-0.13017999 4.1471844 -0.093953192
-0.12274114 4.1471844 -0.093953192
-0.11530228 4.1471844 -0.093953192
-0.104144 4.1471844 -0.093953192
-0.092985712 4.1458511 -0.09742558
-0.085546851 4.1471844 -0.093953192
-0.074388564 4.1471844 -0.093953192
-0.063230284 4.1458511 -0.09742558
-0.055791426 4.1471844 -0.093953192
-0.045872953 4.1476288 -0.09279573
-0.033474855 4.1485171 -0.090480804
0.014877714 4.1485171 -0.090480804
0.14505771 4.1485171 -0.090480804
0.32359028 4.1485171 -0.090480804
0.33474857 4.1485171 -0.090480804
0.34590685 4.1485171 -0.090480804
0.35334569 4.1485171 -0.090480804
-0.27457345 4.1951971 -0.091498971
-0.16424257 4.1942983 -0.093839921
-0.15421249 4.1938491 -0.0950104
-0.14668992 4.1938491 -0.0950104
-0.13916737 4.1938491 -0.0950104
-0.094032004 4.1951971 -0.091498971
-0.071464323 4.1951971 -0.091498971
-0.063941762 4.1951971 -0.091498971
0.0037612801 4.1951971 -0.091498971
0.80475813 2.6940544 -0.083859473
0.81445408 2.6940541 -0.083859473
0.82495791 2.6943436 -0.083105147
0.83384585 2.6940544 -0.083859473
0.82773638 2.7128844 -0.086752355
-0.67444587 2.9540124 -0.084425688
-0.65054822 2.9540124 -0.084425688
-0.64523762 2.9540124 -0.084425688
-0.67182171 2.9786475 -0.082603514
-0.66379201 2.9786475 -0.082603514
-0.64505589 2.9776883 -0.08510232
-0.63702619 2.9786475 -0.082603514
-0.62899643 2.9786475 -0.082603514
-0.62598372 3.0036802 -0.080751956
-0.63380253 3.0261955 -0.086488724
-0.62292182 3.0281451 -0.081409693
-0.63352197 3.0510452 -0.087198913
-0.62438029 3.0517004 -0.085492037
-0.61706686 3.0530107 -0.082078278
-0.62217575 3.0763056 -0.087920845
-0.61480182 3.0776272 -0.084478758
-0.61342824 3.1029866 -0.086051702
-0.61296862 3.1281002 -0.089401186
-0.60453326 3.1281002 -0.089401186
-0.61015683 3.1301155 -0.084151089
-0.60453326 3.1301155 -0.084151089
-0.60399407 3.1566882 -0.084865451
-0.59832275 3.1566882 -0.084865451
-0.59486574 3.1847403 -0.082922101
-0.58437932 3.1843987 -0.083812095
-0.58557957 3.2132759 -0.080945134
-0.57981032 3.2132759 -0.080945134
-0.56514418 3.5169356 -0.088594556
-0.55672497 3.5176899 -0.086629547
-0.570535 3.5527675 -0.083488464
-0.55353582 3.552006 -0.085472226
-0.55028522 3.5869825 -0.084292412
-0.54384917 3.5869825 -0.084292412
-0.54263878 3.6218619 -0.085112095
-0.54140455 3.6574254 -0.085947871
-0.53484207 3.6574254 -0.085947871
-0.5401457 3.6960683 -0.080612779
-0.53351814 3.6948807 -0.083706439
-0.5235768 3.6948807 -0.083706439
-0.5165484 3.7322857 -0.083503246
-0.51388538 3.7684278 -0.08855629
-0.50374293 3.7684278 -0.08855629
-0.51050454 3.7708509 -0.082243681
-0.50374293 3.7708509 -0.082243681
-0.50206017 3.8081632 -0.086272895
-0.50034255 3.8487182 -0.083942175
-0.49510232 3.8888688 -0.084817767
-0.48622811 3.9298649 -0.085711956
-0.48072559 3.9717338 -0.086625218
-0.47360373 3.9717338 -0.086625218
-0.4739047 4.0162234 -0.083077632
-0.46430662 4.0157933 -0.0841977
-0.46208388 4.0582032 -0.08851099
-0.45480698 4.0582032 -0.08851099
-0.0036384559 4.0582032 -0.08851099
0.02546919 4.0582032 -0.08851099
0.032746103 4.0582032 -0.08851099
0.043661468 4.0582032 -0.08851099
0.065492205 4.0582032 -0.08851099
0.076407574 4.0582032 -0.08851099
0.083684482 4.0582032 -0.08851099
0.17464587 4.0582032 -0.08851099
0.18556124 4.0582032 -0.08851099
0.19283816 4.0582032 -0.08851099
0.20375353 4.0582032 -0.08851099
0.21466888 4.0582032 -0.08851099
0.22558427 4.0582032 -0.08851099
0.23649962 4.0582032 -0.08851099
0.24377653 4.0582032 -0.08851099
0.2546919 4.0582032 -0.08851099
0.26560727 4.0582032 -0.08851099
0.27288419 4.0582032 -0.08851099
0.28379953 4.0582032 -0.08851099
0.36748403 4.0582032 -0.08851099
0.37476096 4.0582032 -0.08851099
0.38567632 4.0582032 -0.08851099
-0.46208388 4.060811 -0.081717491
0.20011507 4.060811 -0.081717491
0.23649962 4.060811 -0.081717491
0.2546919 4.060811 -0.081717491
0.26560727 4.060811 -0.081717491
0.27288419 4.060811 -0.081717491
0.28379953 4.060811 -0.081717491
-0.45490751 4.1046214 -0.084906258
-0.44509816 4.1041822 -0.086050987
-0.43774116 4.1028638 -0.089485168
-0.35681424 4.1028638 -0.089485168
-0.02574948 4.1028638 -0.089485168
-0.01471399 4.1028638 -0.089485168
0.055177458 4.1028638 -0.089485168
0.069891445 4.1055002 -0.082616806
0.077248439 4.1055002 -0.082616806
0.084605433 4.1055002 -0.082616806
0.095640928 4.1028638 -0.089485168
0.10667641 4.1041822 -0.086050987
0.11403341 4.1041822 -0.086050987
0.1250689 4.1028638 -0.089485168
0.13610439 4.1028638 -0.089485168
0.15572305 4.1037426 -0.087195717
0.16553237 4.1041822 -0.086050987
0.17288937 4.1055002 -0.082616806
0.18392485 4.1055002 -0.082616806
0.19496036 4.1055002 -0.082616806
0.20967434 4.1055002 -0.082616806
0.21703133 4.1055002 -0.082616806
0.22438833 4.1055002 -0.082616806
0.23174532 4.1055002 -0.082616806
0.24645931 4.1055002 -0.082616806
0.29795825 4.1028638 -0.089485168
0.30531526 4.1041822 -0.086050987
0.31267226 4.1028638 -0.089485168
0.35681424 4.1028638 -0.089485168
0.36417121 4.1028638 -0.089485168
0.37520671 4.1055002 -0.082616806
0.38624221 4.1055002 -0.082616806
0.73202091 4.1028638 -0.089485168
-0.44261199 4.1511827 -0.083536029
-0.43517312 4.1511827 -0.083536029
-0.42773426 4.1511827 -0.083536029
-0.41285655 4.1511827 -0.083536029
-0.40541768 4.1511827 -0.083536029
-0.39797884 4.1511827 -0.083536029
-0.37566227 4.1511827 -0.083536029
-0.36450398 4.1511827 -0.083536029
-0.33102912 4.1511827 -0.083536029
-0.32359028 4.1511827 -0.083536029
-0.31615141 4.1511827 -0.083536029
-0.3012737 4.1511827 -0.083536029
-0.286396 4.1511827 -0.083536029
0.026035998 4.1511827 -0.083536029
0.092985712 4.1511827 -0.083536029
0.10042457 4.1511827 -0.083536029
0.12274114 4.1511827 -0.083536029
0.13389942 4.1511827 -0.083536029
0.14505771 4.1511827 -0.083536029
0.15249656 4.1511827 -0.083536029
0.3012737 4.1511827 -0.083536029
0.31615141 4.1511827 -0.083536029
0.36450398 4.1511827 -0.083536029
0.72528851 4.1511827 -0.083536029
0.73272741 4.1511827 -0.083536029
0.74016625 4.1511827 -0.083536029
-0.42502466 4.1978927 -0.084475994
-0.39493442 4.1978927 -0.084475994
-0.38741186 4.1978927 -0.084475994
-0.35732162 4.1978927 -0.084475994
-0.34603778 4.1978927 -0.084475994
-0.31218624 4.1978927 -0.084475994
-0.29714113 4.1978927 -0.084475994
-0.282096 4.1978927 -0.084475994
-0.26705089 4.1978927 -0.084475994
-0.25576705 4.1978927 -0.084475994
-0.22191553 4.1978927 -0.084475994
-0.21439297 4.1978927 -0.084475994
-0.20687041 4.1978927 -0.084475994
-0.19558656 4.1978927 -0.084475994
-0.18430273 4.1978927 -0.084475994
-0.17678016 4.1978927 -0.084475994
-0.16925761 4.1978927 -0.084475994
-0.12412225 4.1978927 -0.084475994
-0.11659969 4.1978927 -0.084475994
-0.10531585 4.1978927 -0.084475994
-0.094032004 4.1978927 -0.084475994
-0.086509444 4.1978927 -0.084475994
-0.078986883 4.1978927 -0.084475994
0.015045121 4.1978927 -0.084475994
0.033851523 4.1978927 -0.084475994
0.045135364 4.1978927 -0.084475994
0.056419201 4.1978927 -0.084475994
0.063941762 4.1978927 -0.084475994
0.32723138 4.1978927 -0.084475994
0.33475393 4.1978927 -0.084475994
0.34603778 4.1978927 -0.084475994
0.35732162 4.1978927 -0.084475994
-0.27769807 4.2456646 -0.085437417
-0.24726541 4.2456646 -0.085437417
-0.23585317 4.2456646 -0.085437417
-0.16357559 4.2456646 -0.085437417
-0.15596741 4.2456646 -0.085437417
-0.14835925 4.2456646 -0.085437417
-0.13314292 4.2456646 -0.085437417
-0.072277583 4.2456646 -0.085437417
-0.064669415 4.2456646 -0.085437417
-0.057061251 4.2456646 -0.085437417
-0.041844916 4.2456646 -0.085437417
-0.034236751 4.2456646 -0.085437417
-0.026628584 4.2456646 -0.085437417
-0.015216333 4.2456646 -0.085437417
-0.0038040834 4.2456646 -0.085437417
0.0038040834 4.2456646 -0.085437417
-0.14237122 4.2945352 -0.086420774
-0.050022323 4.2945352 -0.086420774
-0.26080939 4.3473325 -0.08015883
-0.25302404 4.3473325 -0.08015883
-0.050604805 4.3473325 -0.08015883
0.81098902 2.6789443 -0.072021663
0.82061499 2.6789443 -0.072021663
0.80475819 2.6975291 -0.074807584
0.81364608 2.6972392 -0.075561903
0.82334191 2.6972392 -0.075561903
0.83384585 2.6975291 -0.074807584
-0.67444587 2.9568672 -0.076988906
-0.66382468 2.9578187 -0.074509978
-0.65231842 2.9571846 -0.076162599
-0.64523762 2.9568672 -0.076988906
-0.63992703 2.9568672 -0.076988906
-0.63702619 2.9815252 -0.075107157
-0.62899643 2.9824843 -0.072608352
-0.63380253 3.0310698 -0.073791206
-0.62654871 3.0307446 -0.074637711
-0.62438029 3.0562868 -0.07354369
-0.61706686 3.0559592 -0.074397147
-0.61388004 3.0812602 -0.075013101
-0.61063993 3.1069834 -0.075639307
-0.60506326 3.1069834 -0.075639307
-0.60453326 3.1331387 -0.076276034
-0.60399407 3.1587207 -0.07957077
-0.59832275 3.1587207 -0.07957077
-0.60399407 3.1607533 -0.074276149
-0.59832275 3.1607533 -0.074276149
-0.59486574 3.1878152 -0.07491219
-0.58628595 3.1878152 -0.07491219
-0.60288733 3.217411 -0.070173025
-0.59423345 3.217411 -0.070173025
-0.58557957 3.2163773 -0.072866023
-0.57692569 3.2163773 -0.072866023
-0.55882972 3.5214615 -0.076804519
-0.570535 3.5561941 -0.074561477
-0.56416035 3.5573363 -0.071585774
-0.55566072 3.5558136 -0.07555338
-0.55028522 3.5892889 -0.078283787
-0.55350327 3.5915954 -0.072275281
-0.54384917 3.5915954 -0.072275281
-0.54480499 3.6249669 -0.077022709
-0.54140455 3.6597772 -0.079821229
-0.54140455 3.6621289 -0.073694587
-0.53484207 3.6621289 -0.073694587
-0.53351814 3.6984434 -0.07442534
-0.5235768 3.6984434 -0.07442534
-0.5187797 3.7354841 -0.075170875
-0.51388538 3.7732739 -0.075931311
-0.50374293 3.7732739 -0.075931311
-0.50206017 3.8130589 -0.073518693
-0.50034255 3.852428 -0.074277699
-0.49510232 3.8926175 -0.075052619
-0.48622808 3.9336529 -0.075843871
-0.47565791 3.9349155 -0.072554469
-0.48072559 3.9742861 -0.07997632
-0.47360373 3.9768384 -0.073327541
-0.47150517 4.0196629 -0.074117064
-0.46430662 4.0196629 -0.074117064
-0.46208388 4.0634189 -0.074923754
-0.45480698 4.0634189 -0.074923754
0.23542382 4.1081367 -0.075748444
0.24645931 4.1081367 -0.075748444
0.25381631 4.1081367 -0.075748444
0.26485181 4.1081367 -0.075748444
0.27588728 4.1081367 -0.075748444
0.29060128 4.1081367 -0.075748444
-0.45005083 4.1538486 -0.076591253
-0.44261199 4.1538486 -0.076591253
-0.42773426 4.1538486 -0.076591253
-0.36450398 4.1538486 -0.076591253
-0.33102912 4.1538486 -0.076591253
-0.32359028 4.1538486 -0.076591253
-0.31615141 4.1538486 -0.076591253
-0.29383484 4.1538486 -0.076591253
-0.286396 4.1538486 -0.076591253
0.074388564 4.1538486 -0.076591253
0.085546851 4.1538486 -0.076591253
0.18597141 4.1538486 -0.076591253
0.19712971 4.1538486 -0.076591253
0.20456856 4.1538486 -0.076591253
0.21572685 4.1538486 -0.076591253
0.22688513 4.1538486 -0.076591253
0.286396 4.1538486 -0.076591253
0.30499312 4.1538486 -0.076591253
0.37566227 4.1538486 -0.076591253
0.38310114 4.1538486 -0.076591253
0.72528851 4.1538486 -0.076591253
0.73272741 4.1538486 -0.076591253
0.74388564 4.1538486 -0.076591253
-0.44006976 4.2005887 -0.077453017
-0.42502466 4.2005887 -0.077453017
-0.41750211 4.2019367 -0.073941588
-0.40621826 4.2005887 -0.077453017
-0.37612802 4.2019367 -0.073941588
-0.35732162 4.2005887 -0.077453017
-0.34603778 4.2019367 -0.073941588
-0.31218624 4.2005887 -0.077453017
-0.30466369 4.2005887 -0.077453017
-0.25952834 4.2005887 -0.077453017
-0.21439297 4.2005887 -0.077453017
-0.19182529 4.2005887 -0.077453017
-0.18430273 4.2005887 -0.077453017
0.015045121 4.2005887 -0.077453017
0.02632896 4.2005887 -0.077453017
0.045135364 4.2005887 -0.077453017
0.056419201 4.2005887 -0.077453017
0.063941762 4.2005887 -0.077453017
0.078986883 4.2032847 -0.07043016
0.086509444 4.2032847 -0.07043016
0.094032004 4.2005887 -0.077453017
0.10531585 4.2005887 -0.077453017
0.11659969 4.2005887 -0.077453017
0.12412225 4.2005887 -0.077453017
0.13916737 4.2005887 -0.077453017
0.14668992 4.2005887 -0.077453017
0.15421249 4.2005887 -0.077453017
0.16549632 4.2005887 -0.077453017
0.17678016 4.2005887 -0.077453017
0.18430273 4.2032847 -0.07043016
0.19558656 4.2032847 -0.07043016
0.20687041 4.2032847 -0.07043016
0.21439297 4.2032847 -0.07043016
0.2256768 4.2032847 -0.07043016
0.25200579 4.2032847 -0.07043016
0.28961858 4.2032847 -0.07043016
0.30466369 4.2032847 -0.07043016
0.31720129 4.2023864 -0.07277111
0.32723138 4.2005887 -0.077453017
0.33475393 4.2005887 -0.077453017
0.34227648 4.2005887 -0.077453017
0.36484417 4.2005887 -0.077453017
0.37487426 4.2023864 -0.07277111
-0.39562467 4.2483912 -0.07833457
-0.20542049 4.2483912 -0.07833457
-0.17498782 4.2483912 -0.07833457
-0.15596741 4.2483912 -0.07833457
-0.11031841 4.2483912 -0.07833457
-0.10271025 4.2483912 -0.07833457
-0.095102087 4.2483912 -0.07833457
-0.087493919 4.2483912 -0.07833457
-0.079885751 4.2483912 -0.07833457
-0.026628584 4.2483912 -0.07833457
-0.019020416 4.2483912 -0.07833457
-0.0038040834 4.2483912 -0.07833457
0.034236751 4.2483912 -0.07833457
0.13314292 4.2483912 -0.07833457
0.35377976 4.2483912 -0.07833457
0.36138791 4.2483912 -0.07833457
-0.41464508 4.2511177 -0.071231723
-0.40703693 4.2511177 -0.071231723
-0.3842124 4.2511177 -0.071231723
-0.36138791 4.2511177 -0.071231723
-0.30432665 4.2511177 -0.071231723
-0.18640009 4.2511177 -0.071231723
-0.17498782 4.2511177 -0.071231723
-0.15596741 4.2511177 -0.071231723
0.015216333 4.2511177 -0.071231723
0.026628584 4.2511177 -0.071231723
0.034236751 4.2511177 -0.071231723
0.045649 4.2511177 -0.071231723
0.057061251 4.2511177 -0.071231723
0.064669415 4.2511177 -0.071231723
0.072277583 4.2511177 -0.071231723
0.095102087 4.2511177 -0.071231723
0.10271025 4.2511177 -0.071231723
0.1141225 4.2511177 -0.071231723
0.12553474 4.2511177 -0.071231723
0.13314292 4.2511177 -0.071231723
0.14455517 4.2511177 -0.071231723
0.15596741 4.2511177 -0.071231723
0.16357559 4.2511177 -0.071231723
0.17498782 4.2511177 -0.071231723
0.33475932 4.2511177 -0.071231723
0.34617159 4.2511177 -0.071231723
0.35377976 4.2511177 -0.071231723
0.365192 4.2511177 -0.071231723
-0.28474247 4.2972932 -0.079236269
-0.27319884 4.2972932 -0.079236269
-0.24241588 4.2972932 -0.079236269
-0.23472014 4.2972932 -0.079236269
-0.22702439 4.2972932 -0.079236269
-0.16545846 4.2972932 -0.079236269
-0.15006697 4.2972932 -0.079236269
-0.14237122 4.2972932 -0.079236269
-0.13467549 4.2972932 -0.079236269
-0.12697974 4.2972932 -0.079236269
-0.119284 4.2972932 -0.079236269
-0.073109552 4.2972932 -0.079236269
-0.06541381 4.2972932 -0.079236269
-0.057718065 4.2972932 -0.079236269
-0.042326581 4.2972932 -0.079236269
-0.034630839 4.2972932 -0.079236269
-0.011543613 4.2972932 -0.079236269
0.003847871 4.2972932 -0.079236269
-0.40402645 4.3000512 -0.072051644
-0.39633071 4.3000512 -0.072051644
-0.31937331 4.3000512 -0.072051644
-0.28474247 4.3000512 -0.072051644
-0.27319884 4.3000512 -0.072051644
-0.22702439 4.3000512 -0.072051644
-0.21548077 4.3000512 -0.072051644
-0.20393717 4.3000512 -0.072051644
-0.19624142 4.3000512 -0.072051644
-0.16545846 4.3000512 -0.072051644
-0.15006697 4.3000512 -0.072051644
-0.14237122 4.3000512 -0.072051644
-0.12697974 4.3000512 -0.072051644
-0.11543613 4.3000512 -0.072051644
-0.10389252 4.3000512 -0.072051644
-0.096196778 4.3000512 -0.072051644
-0.084653169 4.3000512 -0.072051644
-0.011543613 4.3000512 -0.072051644
-0.003847871 4.3000512 -0.072051644
0.003847871 4.3000512 -0.072051644
-0.26080939 4.3501225 -0.072890639
-0.25302404 4.3501225 -0.072890639
-0.24523868 4.3501225 -0.072890639
-0.23745333 4.3501225 -0.072890639
-0.13624372 4.3501225 -0.072890639
-0.073960871 4.3501225 -0.072890639
-0.066175513 4.3501225 -0.072890639
-0.058390163 4.3501225 -0.072890639
-0.042819452 4.3501225 -0.072890639
-0.035034098 4.3501225 -0.072890639
-0.027248742 4.3501225 -0.072890639
-0.019463386 4.3501225 -0.072890639
-0.051201005 4.4013734 -0.073749423
0.81339556 2.6815317 -0.065281689
0.82302153 2.6815317 -0.065281689
0.83505398 2.6815319 -0.065281689
0.80475813 2.7010038 -0.065755695
0.81203008 2.7010036 -0.065755695
-0.67444587 2.959722 -0.069552124
-0.66382468 2.959722 -0.069552124
-0.65320349 2.959722 -0.069552124
-0.64523762 2.959722 -0.069552124
-0.63727176 2.959722 -0.069552124
-0.62930584 2.959722 -0.069552124
-0.66116941 2.9616251 -0.064594269
-0.65320349 2.9616251 -0.064594269
-0.64523762 2.9616251 -0.064594269
-0.63727176 2.9616251 -0.064594269
-0.62930584 2.9616251 -0.064594269
-0.67449826 2.986321 -0.0626131
-0.66379201 2.9872804 -0.060114324
-0.65576226 2.9872804 -0.060114324
-0.63407838 3.0094819 -0.065638006
-0.63380253 3.0349689 -0.063633174
-0.625642 3.0349689 -0.063633174
-0.62255192 3.0589077 -0.066716015
-0.61706686 3.0589077 -0.066716015
-0.62255192 3.0608735 -0.061595261
-0.61706686 3.0608735 -0.061595261
-0.61480182 3.0855548 -0.063826285
-0.61342824 3.1099811 -0.067829967
-0.60506326 3.1099811 -0.067829967
-0.61063993 3.1119797 -0.062623739
-0.60506326 3.1119797 -0.062623739
-0.60453326 3.1371689 -0.06577602
-0.60399407 3.1638017 -0.066334218
-0.59832275 3.1638017 -0.066334218
-0.58628595 3.1919148 -0.06423223
-0.60288733 3.2194786 -0.064786792
-0.59711808 3.2194786 -0.064786792
-0.58557957 3.2194786 -0.064786792
-0.58486074 3.2475219 -0.065351248
-0.57904124 3.2475219 -0.065351248
-0.56416035 3.5596209 -0.065634608
-0.56637543 3.5950551 -0.063262343
-0.55672133 3.5950551 -0.063262343
-0.55563617 3.6288486 -0.066910982
-0.54588813 3.6288486 -0.066910982
-0.53614014 3.6288486 -0.066910982
-0.5686335 3.6311777 -0.060843945
-0.55563617 3.6311777 -0.060843945
-0.54588813 3.6311777 -0.060843945
-0.53614014 3.6311777 -0.060843945
-0.53484207 3.6656566 -0.064504743
-0.53351814 3.7020061 -0.06514436
-0.5235768 3.7008185 -0.06823802
-0.5187797 3.7378831 -0.068921447
-0.53216755 3.7402821 -0.062672138
-0.52547359 3.7402821 -0.062672138
-0.5187797 3.7402821 -0.062672138
-0.51388538 3.7769086 -0.066462398
-0.50374293 3.7756972 -0.069618702
-0.50547552 3.816731 -0.063953161
-0.50034255 3.8561378 -0.064613342
-0.49510232 3.8963659 -0.065287471
-0.48622811 3.9374411 -0.065975666
-0.47565791 3.9374411 -0.065975666
-0.47360373 3.9793906 -0.066678643
-0.47360373 3.9819429 -0.060029864
-0.46648186 3.9819429 -0.060029864
-0.47150517 4.0222425 -0.067396641
-0.46430662 4.0235324 -0.064036429
-0.45710805 4.0248222 -0.060676217
-0.44631022 4.0248222 -0.060676217
-0.46208388 4.0660267 -0.068130255
0.74673492 4.11341 -0.062011719
-0.44261199 4.1565146 -0.069646478
-0.36078456 4.1565146 -0.069646478
-0.33102912 4.1578474 -0.06617409
-0.32359028 4.1565146 -0.069646478
-0.31615141 4.1565146 -0.069646478
-0.286396 4.1565146 -0.069646478
0.23432399 4.1565146 -0.069646478
0.24176285 4.1565146 -0.069646478
0.25664055 4.1565146 -0.069646478
0.26407942 4.1565146 -0.069646478
0.27523768 4.1565146 -0.069646478
0.29383484 4.1565146 -0.069646478
0.72528851 4.1578474 -0.06617409
0.73272741 4.1578474 -0.06617409
0.74388564 4.1578474 -0.06617409
-0.42502466 4.2059803 -0.063407302
-0.36484417 4.2059803 -0.063407302
-0.32723138 4.2059803 -0.063407302
0.20687041 4.2059803 -0.063407302
0.21439297 4.2059803 -0.063407302
0.2256768 4.2059803 -0.063407302
0.23696065 4.2059803 -0.063407302
0.24448322 4.2059803 -0.063407302
0.25576705 4.2059803 -0.063407302
0.26705089 4.2059803 -0.063407302
0.27457345 4.2059803 -0.063407302
0.28585729 4.2059803 -0.063407302
0.29714113 4.2059803 -0.063407302
0.30466369 4.2059803 -0.063407302
0.31218624 4.2059803 -0.063407302
0.37612802 4.2059803 -0.063407302
-0.37660426 4.2538443 -0.064128876
-0.36138791 4.2538443 -0.064128876
-0.35377976 4.2538443 -0.064128876
-0.34617159 4.2538443 -0.064128876
0.01141225 4.2538443 -0.064128876
0.079885751 4.2538443 -0.064128876
0.087493919 4.2538443 -0.064128876
0.095102087 4.2538443 -0.064128876
0.10271025 4.2538443 -0.064128876
0.1141225 4.2538443 -0.064128876
0.12553474 4.2538443 -0.064128876
0.14075108 4.2538443 -0.064128876
0.15596741 4.2538443 -0.064128876
0.16357559 4.2538443 -0.064128876
0.17498782 4.2538443 -0.064128876
0.18640009 4.2538443 -0.064128876
0.19400825 4.2538443 -0.064128876
0.20161642 4.2538443 -0.064128876
0.32334709 4.2538443 -0.064128876
0.33475932 4.2538443 -0.064128876
0.34617159 4.2538443 -0.064128876
0.35377976 4.2538443 -0.064128876
0.365192 4.2538443 -0.064128876
-0.41172221 4.3028092 -0.06486702
-0.38863498 4.3028092 -0.06486702
-0.31167755 4.3028092 -0.06486702
-0.30398181 4.3028092 -0.06486702
-0.29628608 4.3028092 -0.06486702
-0.19624142 4.3028092 -0.06486702
-0.18469781 4.3028092 -0.06486702
-0.17315421 4.3028092 -0.06486702
-0.16545846 4.3028092 -0.06486702
-0.11158826 4.3028092 -0.06486702
-0.003847871 4.3028092 -0.06486702
0.003847871 4.3028092 -0.06486702
0.019239355 4.3028092 -0.06486702
0.026935097 4.3028092 -0.06486702
0.034630839 4.3028092 -0.06486702
0.042326581 4.3028092 -0.06486702
0.053870194 4.3028092 -0.06486702
0.06541381 4.3028092 -0.06486702
0.073109552 4.3028092 -0.06486702
0.13467549 4.3028092 -0.06486702
0.15006697 4.3028092 -0.06486702
-0.40483844 4.3529129 -0.06562233
-0.29195079 4.3529129 -0.06562233
-0.28416544 4.3529129 -0.06562233
-0.27638009 4.3529129 -0.06562233
-0.26859474 4.3529129 -0.06562233
-0.23745333 4.3529129 -0.06562233
-0.22577529 4.3529129 -0.06562233
-0.21409726 4.3529129 -0.06562233
-0.2063119 4.3529129 -0.06562233
-0.15570709 4.3529129 -0.06562233
-0.14402907 4.3529129 -0.06562233
-0.13624372 4.3529129 -0.06562233
-0.12456568 4.3529129 -0.06562233
-0.10510229 4.3529129 -0.06562233
-0.097316936 4.3529129 -0.06562233
-0.085638903 4.3529129 -0.06562233
-0.073960871 4.3529129 -0.06562233
-0.066175513 4.3529129 -0.06562233
-0.058390163 4.3529129 -0.06562233
-0.042819452 4.3529129 -0.06562233
-0.035034098 4.3529129 -0.06562233
-0.027248742 4.3529129 -0.06562233
-0.015570709 4.3529129 -0.06562233
-0.43717781 4.4041963 -0.066395521
-0.42930073 4.4041963 -0.066395521
-0.33477578 4.4041963 -0.066395521
-0.32689872 4.4041963 -0.066395521
-0.2638821 4.4041963 -0.066395521
-0.25600502 4.4041963 -0.066395521
-0.24812794 4.4041963 -0.066395521
-0.051201005 4.4041963 -0.066395521
-0.67444587 2.9654312 -0.054678559
-0.66116941 2.9654312 -0.054678559
-0.65320349 2.9654312 -0.054678559
-0.64523762 2.9644797 -0.057157457
-0.63727176 2.9644794 -0.057157457
-0.62665057 2.9644794 -0.057157457
-0.67182171 2.9891987 -0.055116653
-0.63380253 3.0378933 -0.056014538
-0.6247353 3.038543 -0.054321546
-0.62255192 3.062839 -0.056474566
-0.61523849 3.0641496 -0.053060811
-0.61388004 3.0881972 -0.056942105
-0.61063993 3.1139781 -0.057417572
-0.60506326 3.1149774 -0.054814458
-0.60453326 3.1411996 -0.055275857
-0.60399407 3.1678667 -0.055745006
-0.59832275 3.1668503 -0.058392286
-0.55578798 3.1678667 -0.055745006
-0.60344553 3.1960144 -0.053552389
-0.59200579 3.1939645 -0.05889225
-0.58628595 3.1949894 -0.05622232
-0.56340647 3.1960144 -0.053552389
-0.60288733 3.22258 -0.05670774
-0.59711808 3.2236137 -0.054014683
-0.58557957 3.22258 -0.05670774
-0.57788724 3.2222354 -0.057605427
-0.57904124 3.251693 -0.054485321
-0.55672133 3.5985148 -0.054249406
-0.58163083 3.6335065 -0.054777026
-0.57513213 3.6335065 -0.054777026
-0.5686335 3.6335065 -0.054777026
-0.55563617 3.6335065 -0.054777026
-0.54588813 3.6335065 -0.054777026
-0.53614014 3.6335065 -0.054777026
-0.53484207 3.6691842 -0.055314898
-0.53351814 3.7055688 -0.055863261
-0.52026302 3.7055688 -0.055863261
-0.53216755 3.742681 -0.056422949
-0.5187797 3.7438803 -0.053298235
-0.51388538 3.781755 -0.053837299
-0.50374293 3.781755 -0.053837299
-0.50206017 3.8191788 -0.05757606
-0.50206017 3.8216267 -0.051199079
-0.50034255 3.8586109 -0.058170438
-0.50034255 3.8610842 -0.051727533
-0.49510232 3.8988647 -0.058777332
-0.49510232 3.9013638 -0.052267194
-0.48622811 3.9399664 -0.059397101
-0.47565791 3.9399664 -0.059397101
-0.48622811 3.9424918 -0.052818298
-0.48072559 3.9844952 -0.053380966
-0.47510445 4.0274019 -0.053955674
-0.46430662 4.0274019 -0.053955674
-0.46208388 4.0712423 -0.054543018
-0.45981213 4.1160464 -0.055143356
0.74673492 4.1160464 -0.055143356
0.72528851 4.1618462 -0.055756927
0.73272741 4.1618462 -0.055756927
0.74388564 4.1618462 -0.055756927
-0.43254721 4.2086763 -0.056384325
0.2256768 4.2086763 -0.056384325
0.23696065 4.2086763 -0.056384325
0.24448322 4.2086763 -0.056384325
0.25576705 4.2086763 -0.056384325
0.26705089 4.2086763 -0.056384325
0.28585729 4.2086763 -0.056384325
0.29714113 4.2086763 -0.056384325
0.30466369 4.2086763 -0.056384325
0.31594753 4.2086763 -0.056384325
0.32723138 4.2086763 -0.056384325
0.37612802 4.2086763 -0.056384325
0.079885751 4.2565708 -0.057026029
0.087493919 4.2565708 -0.057026029
0.095102087 4.2565708 -0.057026029
0.10271025 4.2565708 -0.057026029
0.1141225 4.2565708 -0.057026029
0.12553474 4.2565708 -0.057026029
0.13314292 4.2565708 -0.057026029
0.14075108 4.2565708 -0.057026029
0.15596741 4.2565708 -0.057026029
0.16357559 4.2565708 -0.057026029
0.17498782 4.2565708 -0.057026029
0.18640009 4.2565708 -0.057026029
0.19400825 4.2565708 -0.057026029
0.20542049 4.2565708 -0.057026029
0.21683276 4.2565708 -0.057026029
0.27769807 4.2565708 -0.057026029
0.33856341 4.2565708 -0.057026029
0.34617159 4.2565708 -0.057026029
0.35377976 4.2565708 -0.057026029
0.365192 4.2565708 -0.057026029
-0.35400414 4.3055668 -0.057682395
-0.18469781 4.3055668 -0.057682395
-0.16545846 4.3055668 -0.057682395
0.015391484 4.3069458 -0.054090083
0.026935097 4.3069458 -0.054090083
0.034630839 4.3069458 -0.054090083
0.042326581 4.3069458 -0.054090083
0.053870194 4.3069458 -0.054090083
0.06541381 4.3069458 -0.054090083
0.073109552 4.3055668 -0.057682395
0.15006697 4.3069458 -0.054090083
-0.44765791 4.3584929 -0.05108583
-0.43597984 4.3584929 -0.05108583
-0.42430183 4.3557029 -0.058354139
-0.41651648 4.3557029 -0.058354139
-0.39316043 4.3570976 -0.054719985
-0.38537505 4.3570976 -0.054719985
-0.3775897 4.3557029 -0.058354139
-0.36980435 4.3557029 -0.058354139
-0.3464483 4.3557029 -0.058354139
-0.33866292 4.3557029 -0.058354139
-0.31530687 4.3557029 -0.058354139
-0.29714105 4.3566327 -0.055931371
-0.28416544 4.3557029 -0.058354139
-0.27638009 4.3557029 -0.058354139
-0.26340452 4.3566327 -0.055931371
-0.25302404 4.3557029 -0.058354139
-0.24523868 4.3557029 -0.058354139
-0.23745333 4.3557029 -0.058354139
-0.22447772 4.3566327 -0.055931371
-0.21409726 4.3570976 -0.054719985
-0.2063119 4.3570976 -0.054719985
-0.19593143 4.357563 -0.053508598
-0.18295583 4.3584929 -0.05108583
-0.17517048 4.3570976 -0.054719985
-0.16738513 4.3584929 -0.05108583
-0.15570709 4.3570976 -0.054719985
-0.14402907 4.3557029 -0.058354139
-0.11288764 4.3557029 -0.058354139
-0.097316936 4.3557029 -0.058354139
-0.085638903 4.3557029 -0.058354139
-0.073960871 4.3570976 -0.054719985
-0.066175513 4.3570976 -0.054719985
-0.055795044 4.3575625 -0.053508598
-0.042819452 4.3570976 -0.054719985
-0.035034098 4.3570976 -0.054719985
-0.027248742 4.3584929 -0.05108583
-0.019463386 4.3570976 -0.054719985
-0.0038926774 4.3570976 -0.054719985
0.0038926774 4.3570976 -0.054719985
-0.44505486 4.4070191 -0.059041619
-0.43717781 4.4070191 -0.059041619
-0.42536217 4.409842 -0.051687717
-0.41354656 4.4084306 -0.055364668
-0.40566948 4.4084306 -0.055364668
-0.38203827 4.409842 -0.051687717
-0.37416118 4.409842 -0.051687717
-0.3662841 4.409842 -0.051687717
-0.35446846 4.409842 -0.051687717
-0.34265286 4.409842 -0.051687717
-0.33477578 4.4084306 -0.055364668
-0.32689872 4.4084306 -0.055364668
-0.31377026 4.4089012 -0.054139018
-0.2953904 4.409842 -0.051687717
-0.28751332 4.409842 -0.051687717
-0.27569771 4.409842 -0.051687717
-0.25600502 4.409842 -0.051687717
-0.2441894 4.409842 -0.051687717
-0.23237379 4.409842 -0.051687717
-0.14572594 4.409842 -0.051687717
-0.13784885 4.4084306 -0.055364668
-0.12603323 4.4084306 -0.055364668
-0.11421762 4.409842 -0.051687717
-0.10634054 4.4084306 -0.055364668
-0.094524927 4.409842 -0.051687717
-0.082709312 4.409842 -0.051687717
-0.051201005 4.4070191 -0.059041619
-0.027569771 4.4070191 -0.059041619
-0.011815616 4.4084306 -0.055364668
-0.5760296 3.6008213 -0.0482409
-0.56530279 3.6015902 -0.046238024
-0.55672133 3.6008213 -0.0482409
-0.55563617 3.6369998 -0.045676351
-0.54588813 3.6369998 -0.045676351
-0.53614014 3.6358354 -0.048709869
-0.53484207 3.6727118 -0.046124935
-0.53351814 3.7079439 -0.049675941
-0.5235768 3.7079439 -0.049675941
-0.51543272 3.7474787 -0.043924212
-0.51050454 3.7853899 -0.044368386
-0.50374293 3.7853899 -0.044368386
-0.50206017 3.8240747 -0.044821978
-0.50034255 3.8635573 -0.045284748
-0.49510232 3.9038627 -0.045757174
-0.48622811 3.9450171 -0.046239495
-0.48072559 3.9870472 -0.046732187
-0.47510445 4.0299816 -0.04723537
-0.46430662 4.0299816 -0.04723537
-0.46430662 4.0325613 -0.040514946
-0.46208388 4.0751543 -0.04435271
-0.45613366 4.1186829 -0.048274994
-0.44509816 4.1186829 -0.048274994
-0.45613366 4.1213193 -0.041406631
-0.43774116 4.1213193 -0.041406631
0.72528851 4.1645122 -0.048812151
0.73272741 4.1658449 -0.045339763
0.74512547 4.165401 -0.046497226
0.75504398 4.1645122 -0.048812151
0.24448322 4.2127199 -0.045849979
0.26705089 4.2113719 -0.049361467
0.28711104 4.2122707 -0.047020476
0.29714113 4.2127199 -0.045849979
0.30466369 4.2127199 -0.045849979
0.31594753 4.2127199 -0.045849979
0.32723138 4.2127199 -0.045849979
0.33475393 4.2127199 -0.045849979
0.34478402 4.2131691 -0.044679482
0.076081663 4.2592974 -0.049923182
0.087493919 4.2592974 -0.049923182
0.095102087 4.2592974 -0.049923182
0.10271025 4.2592974 -0.049923182
0.1141225 4.2592974 -0.049923182
0.12553474 4.2592974 -0.049923182
0.13314292 4.2592974 -0.049923182
0.14075108 4.2592974 -0.049923182
0.15596741 4.2592974 -0.049923182
0.16357559 4.2592974 -0.049923182
0.17498782 4.2592974 -0.049923182
0.18640009 4.2592974 -0.049923182
0.19400825 4.2592974 -0.049923182
0.20542049 4.2592974 -0.049923182
0.21683276 4.2592974 -0.049923182
0.22444092 4.2592974 -0.049923182
0.23585317 4.2592974 -0.049923182
0.25487357 4.2592974 -0.049923182
0.26248175 4.2592974 -0.049923182
0.27769807 4.2592974 -0.049923182
0.35377976 4.2592974 -0.049923182
0.365192 4.2592974 -0.049923182
0.37660426 4.2592974 -0.049923182
0.079885751 4.2620239 -0.042820334
0.087493919 4.2620239 -0.042820334
0.095102087 4.2620239 -0.042820334
0.10271025 4.2620239 -0.042820334
0.11792658 4.2620239 -0.042820334
0.12553474 4.2620239 -0.042820334
0.13314292 4.2620239 -0.042820334
0.14075108 4.2620239 -0.042820334
0.16357559 4.2620239 -0.042820334
0.17498782 4.2620239 -0.042820334
0.18640009 4.2620239 -0.042820334
0.19400825 4.2620239 -0.042820334
0.20542049 4.2620239 -0.042820334
0.21683276 4.2620239 -0.042820334
0.22444092 4.2620239 -0.042820334
0.23585317 4.2620239 -0.042820334
0.25487357 4.2620239 -0.042820334
0.26248175 4.2620239 -0.042820334
0.27389401 4.2620239 -0.042820334
0.28530625 4.2620239 -0.042820334
0.365192 4.2620239 -0.042820334
0.37660426 4.2620239 -0.042820334
0.011543613 4.3110828 -0.043313265
0.026935097 4.3110828 -0.043313265
0.034630839 4.3110828 -0.043313265
0.042326581 4.3110828 -0.043313265
0.053870194 4.3110828 -0.043313265
0.06541381 4.3110828 -0.043313265
0.073109552 4.3110828 -0.043313265
0.11158826 4.3110828 -0.043313265
0.15391484 4.3110828 -0.043313265
-0.39316043 4.3612828 -0.04381752
-0.38537505 4.3612828 -0.04381752
-0.29973617 4.3612828 -0.04381752
-0.26080939 4.3612828 -0.04381752
-0.23745333 4.3612828 -0.04381752
-0.22188261 4.3612828 -0.04381752
-0.21409726 4.3612828 -0.04381752
-0.2063119 4.3612828 -0.04381752
-0.19463387 4.3612828 -0.04381752
-0.18295583 4.3612828 -0.04381752
-0.17517048 4.3612828 -0.04381752
-0.16738513 4.3612828 -0.04381752
-0.15570709 4.3612828 -0.04381752
-0.14402907 4.3612828 -0.04381752
-0.081746228 4.3612828 -0.04381752
-0.073960871 4.3612828 -0.04381752
-0.066175513 4.3612828 -0.04381752
-0.054497484 4.3612828 -0.04381752
-0.042819452 4.3612828 -0.04381752
-0.035034098 4.3612828 -0.04381752
-0.027248742 4.3612828 -0.04381752
0.0038926774 4.3612828 -0.04381752
0.019463386 4.3612828 -0.04381752
-0.44505486 4.4126649 -0.044333816
-0.43717781 4.4126649 -0.044333816
-0.42536217 4.4126649 -0.044333816
-0.41354656 4.4126649 -0.044333816
-0.40566948 4.4126649 -0.044333816
-0.38203827 4.4126649 -0.044333816
-0.37416118 4.4126649 -0.044333816
-0.3662841 4.4126649 -0.044333816
-0.35446846 4.4126649 -0.044333816
-0.34265286 4.4126649 -0.044333816
-0.33477578 4.4126649 -0.044333816
-0.31508309 4.4126649 -0.044333816
-0.2953904 4.4126649 -0.044333816
-0.28751332 4.4126649 -0.044333816
-0.27569771 4.4126649 -0.044333816
-0.25600502 4.4126649 -0.044333816
-0.24812794 4.4126649 -0.044333816
-0.23237379 4.4126649 -0.044333816
-0.13784885 4.4126649 -0.044333816
-0.12603323 4.4126649 -0.044333816
-0.11421762 4.4126649 -0.044333816
-0.10634054 4.4126649 -0.044333816
-0.094524927 4.4126649 -0.044333816
-0.015754154 4.4126649 -0.044333816
-0.0039385385 4.4126649 -0.044333816
-0.33079588 4.4652715 -0.04486227
-0.43597984 4.3640728 -0.03654933
-0.42430183 4.3640728 -0.03654933
-0.39316043 4.3640728 -0.03654933
-0.38537505 4.3640728 -0.03654933
-0.22188261 4.3640728 -0.03654933
-0.21409726 4.3640728 -0.03654933
-0.2063119 4.3640728 -0.03654933
-0.19463387 4.3640728 -0.03654933
-0.18295583 4.3640728 -0.03654933
-0.17517048 4.3640728 -0.03654933
-0.16738513 4.3640728 -0.03654933
-0.15570709 4.3640728 -0.03654933
-0.14402907 4.3640728 -0.03654933
-0.081746228 4.3640728 -0.03654933
-0.073960871 4.3640728 -0.03654933
-0.066175513 4.3640728 -0.03654933
-0.058390163 4.3640728 -0.03654933
-0.42142364 4.4154878 -0.036979914
-0.41354656 4.4154878 -0.036979914
-0.40566948 4.4154878 -0.036979914
-0.38203827 4.4154878 -0.036979914
-0.37416118 4.4154878 -0.036979914
-0.3662841 4.4154878 -0.036979914
-0.35446846 4.4154878 -0.036979914
-0.34265286 4.4154878 -0.036979914
-0.33477578 4.4154878 -0.036979914
-0.31508309 4.4154878 -0.036979914
-0.30326748 4.4154878 -0.036979914
-0.2953904 4.4154878 -0.036979914
-0.28751332 4.4154878 -0.036979914
-0.27569771 4.4154878 -0.036979914
-0.2638821 4.4154878 -0.036979914
-0.25600502 4.4154878 -0.036979914
-0.2441894 4.4154878 -0.036979914
-0.23237379 4.4154878 -0.036979914
-0.13784885 4.4154878 -0.036979914
-0.12603323 4.4154878 -0.036979914
-0.11421762 4.4154878 -0.036979914
-0.10634054 4.4154878 -0.036979914
-0.094524927 4.4154878 -0.036979914
